# .PCD v0.7 - Point Cloud Data file format
VERSION 0.7
FIELDS x y z intensity
SIZE 4 4 4 4
TYPE F F F F
COUNT 1 1 1 1
WIDTH 1437
HEIGHT 1
VIEWPOINT 0 0 0 1 0 0 0
POINTS 1437
DATA ascii
3.0779037 -1.2629679 0.56749034 99
2.4061358 -2.5390856 0.39237061 76
10.31991 13.043853 2.1424856 35
nan nan nan 0
3.7553563 0.15936586 0.73539114 68
3.0873539 -1.2536445 0.56658643 99
2.419488 -2.5336194 0.39048228 76
10.263648 13.061523 2.1486285 40
nan nan nan 0
3.7743542 0.17403293 0.73923129 54
3.0871379 -1.2410214 0.56574827 98
2.4254069 -2.5212512 0.38870725 76
10.193669 13.070795 2.1528184 47
nan nan nan 0
3.7785919 0.18810944 0.7401914 59
3.0919404 -1.2298075 0.56400609 99
2.4244442 -2.5018322 0.38461876 76
10.090607 13.036899 2.1469815 42
nan nan nan 0
3.8218815 0.20364086 0.74949968 71
3.0964272 -1.2184666 0.56400609 99
2.4311349 -2.488668 0.38224852 76
10.03301 13.061107 2.1536679 38
nan nan nan 0
3.8015139 0.21653125 0.74565607 33
3.0963697 -1.2053568 0.56259054 99
2.4324512 -2.4735525 0.38055086 82
9.9911156 13.110466 2.1642442 32
nan nan nan 0
3.9034154 0.23669171 0.76651746 16
3.1101518 -1.1976136 0.56309664 99
2.4347372 -2.4577928 0.37644157 82
9.9268875 13.120937 2.1660819 34
5.2512221 2.8440647 1.0583881 16
3.9515309 0.25345644 0.77613497 14
3.1144049 -1.186785 0.56251496 99
2.4447229 -2.4481387 0.37463009 85
9.8549232 13.130297 2.17011 29
5.22648 2.8578584 1.0578498 18
4.0142155 0.27225408 0.78863782 10
3.1188254 -1.1753966 0.56193328 98
2.4467669 -2.4322903 0.37174717 79
9.7643757 13.109462 2.1723492 26
5.1909447 2.8608286 1.0536387 17
3.9980979 0.28588584 0.78785145 10
3.1232963 -1.1640261 0.5607698 98
2.4521728 -2.4198596 0.37061024 75
9.6625566 13.072504 2.1690047 23
5.2360339 2.9107492 1.0671066 17
4.0117526 0.30094105 0.79074442 10
3.1368868 -1.1560148 0.56184542 98
2.4651368 -2.4140403 0.36933851 79
9.5936127 13.079248 2.170038 19
5.2212219 2.9264193 1.068319 40
4.0055938 0.31524706 0.79048133 10
3.1365619 -1.1428552 0.56043416 97
2.4598923 -2.3913052 0.36481479 71
9.3962097 12.909069 2.1445847 19
5.2444134 2.96473 1.0774504 40
4.0533061 0.33395463 0.80013311 10
3.1409135 -1.1314178 0.55926883 98
2.4722638 -2.3857701 0.36474386 78
9.3104582 12.89029 2.144258 16
5.2673883 3.003247 1.0866091 51
4.0516973 0.34806535 0.80226254 10
3.1493967 -1.122069 0.56067842 98
2.4811289 -2.3768244 0.3629449 80
9.1843433 12.814374 2.1372235 24
5.277348 3.0346098 1.0931442 40
4.0455084 0.36247543 0.8012948 9
3.1535802 -1.1105509 0.56009489 97
2.4791508 -2.3575652 0.35957789 67
9.1426258 12.855417 2.1440737 39
5.2999158 3.0734894 1.1023524 40
4.0537815 0.37819886 0.80394089 10
3.1484072 -1.0957752 0.55786085 96
2.4887314 -2.3477232 0.35778651 71
9.0631609 12.84309 2.1476405 38
5.3222632 3.1125724 1.1115881 47
4.032907 0.39045608 0.80006653 10
3.1665769 -1.0891036 0.55916774 98
2.4974558 -2.3387134 0.35599506 76
8.9729776 12.81474 2.1429489 40
5.3534184 3.1559219 1.1226289 46
4.0849953 0.4106172 0.81143767 11
3.1706398 -1.0775216 0.55858326 97
2.4980054 -2.3237283 0.3537693 73
8.914216 12.830653 2.1456883 38
5.3671923 3.1906075 1.127962 40
4.0979576 0.42709738 0.81506515 12
3.174474 -1.0664785 0.55799884 98
2.5037942 -2.3104346 0.35146981 68
8.7933989 12.756281 2.1361129 40
5.4015431 3.2378805 1.1399378 47
4.0671048 0.43895635 0.80924332 10
3.183135 -1.0564206 0.55823529 99
2.5127826 -2.3009276 0.34968591 76
8.7429457 12.783103 2.1462424 41
5.4103503 3.2701747 1.1465975 40
4.0846233 0.45527661 0.81527662 9
3.187078 -1.0447769 0.55764991 99
2.5213342 -2.2918253 0.34790191 75
nan nan nan 0
5.423768 3.3041887 1.1541682 40
4.0827861 0.4702282 0.81599396 9
3.1955786 -1.0346079 0.55847001 99
2.526114 -2.2793176 0.34620637 69
6.0347028 8.9569273 1.5082582 39
5.4585538 3.3502502 1.1662381 49
4.0471125 0.47972357 0.8091777 10
3.1990845 -1.024035 0.55788368 100
2.5262949 -2.2643282 0.34460193 73
6.0163317 9.004077 1.5180777 79
5.4751706 3.3881383 1.1747558 40
4.1421685 0.50712669 0.83083767 10
3.2030859 -1.0117733 0.55729747 99
2.5429342 -2.2608991 0.34383091 75
5.9816895 9.0202332 1.5230509 70
5.5027218 3.435812 1.1871271 40
4.106082 0.51799071 0.82472581 8
3.2068658 -1.0000556 0.5567112 99
2.5364182 -2.2385149 0.34004897 67
6.0569897 9.206871 1.5566908 23
5.5271993 3.4793158 1.1975071 41
4.1090188 0.5336684 0.82570297 11
3.2153165 -0.98977482 0.55694151 100
2.5522239 -2.2358773 0.33927253 76
6.2456555 9.5735102 1.6207199 23
5.5431218 3.517772 1.2061111 40
4.1507311 0.5538258 0.83522838 9
3.2190156 -0.97801173 0.55635434 98
2.5529821 -2.2200558 0.33709663 71
6.4699993 9.9934454 1.6943371 24
5.5772676 3.5640688 1.2183596 46
4.1922488 0.57501209 0.84476906 9
3.2226715 -0.96623468 0.55576712 99
2.5537021 -2.2042964 0.33433887 72
6.6448584 10.35043 1.7592852 72
5.5968785 3.6055593 1.2279249 40
4.1509814 0.58486003 0.83840138 10
3.2354851 -0.95778012 0.55739695 99
2.5735729 -2.2042608 0.33463547 78
6.6141911 10.3862 1.7700057 78
5.6191034 3.6518776 1.2384263 40
4.1390648 0.59792322 0.83717006 8
3.2390673 -0.94594228 0.55680805 98
2.571157 -2.18436 0.33139485 71
6.5731058 10.405665 1.7735908 79
5.6353936 3.6891029 1.2471378 39
4.1609488 0.61666185 0.84281152 9
3.2473466 -0.93545675 0.55703229 99
2.5753858 -2.171751 0.33031812 69
6.526547 10.416318 1.7778877 75
5.6651177 3.7411339 1.2607061 41
4.1727633 0.63405114 0.84796846 9
3.2457533 -0.9227401 0.55680805 100
2.5872767 -2.165602 0.32903942 76
6.4927268 10.447252 1.790054 78
5.6928725 3.7866337 1.2746087 40
4.2188148 0.65612322 0.85856235 7
3.2682083 -0.91619039 0.55947179 98
2.5876291 -2.1498175 0.32689452 73
6.4540644 10.470447 1.7943474 74
5.7082019 3.8256381 1.2810229 40
4.1728139 0.66464216 0.84969085 9
3.2573726 -0.90028888 0.55644244 99
2.595623 -2.1404274 0.325133 72
6.4124103 10.48874 1.8022088 76
5.7385726 3.8765476 1.29352 40
4.2086096 0.68616962 0.8598094 10
3.2702646 -0.89096332 0.55747551 99
2.6151364 -2.1404643 0.32480651 78
6.3785625 10.519823 1.8101009 75
5.7520123 3.9164059 1.3048047 40
4.2350483 0.70566493 0.86648852 7
3.2781787 -0.8802253 0.55887938 98
2.5998297 -2.1120708 0.32135174 79
6.329278 10.525363 1.8136208 71
5.7698464 3.9595778 1.3133978 39
4.2371159 0.72198027 0.86822778 8
3.2860951 -0.87006474 0.55909848 99
2.6076405 -2.1025982 0.32018247 79
6.283102 10.540001 1.8207269 68
5.7989922 4.010922 1.3284662 39
4.2195091 0.73490453 0.86750048 9
3.2987151 -0.86048061 0.56131637 99
2.6310048 -2.1055715 0.32032108 78
6.2489762 10.570651 1.8286245 66
5.8241773 4.0599809 1.3402021 39
4.2601914 0.75732142 0.8771888 8
3.2923846 -0.84595323 0.55909848 98
2.6196661 -2.0800464 0.31678775 80
6.2070422 10.588114 1.8364568 72
5.8497906 4.108252 1.3519721 39
4.2426219 0.77025008 0.87571377 9
3.3050292 -0.83630091 0.5607214 99
2.6347725 -2.0770872 0.31714502 88
6.1690874 10.603809 1.8399993 68
5.8822322 4.163311 1.366896 40
4.2158036 0.77983099 0.87148649 9
3.3126662 -0.8265546 0.56093693 99
2.6428158 -2.0670233 0.31597385 88
6.1293764 10.624954 1.8507042 66
5.8905387 4.2016802 1.3750123 39
4.2219572 0.79774708 0.87572825 7
3.3157206 -0.81380546 0.56153286 99
2.6347742 -2.0452139 0.31235227 76
6.0923657 10.650797 1.8578752 71
5.9381261 4.268548 1.3950539 39
4.3006339 0.82895005 0.89346796 9
3.3235719 -0.80282867 0.56174755 98
2.6462395 -2.0386147 0.31223544 79
6.0428915 10.654725 1.8634328 67
5.9576426 4.315784 1.4073381 38
4.3262563 0.85034609 0.90023398 9
3.3313878 -0.79180545 0.56196052 99
2.6544883 -2.0280416 0.3110694 88
6.0105882 10.688875 1.8721099 70
5.9889817 4.372046 1.4212002 38
4.3131924 0.86342669 0.90053672 7
3.3388398 -0.7812736 0.56336874 98
2.6501312 -2.0093727 0.30793729 78
5.9683275 10.705373 1.8799126 63
6.0088863 4.4188113 1.4322746 38
4.266953 0.86889702 0.89227134 8
3.3367002 -0.76911122 0.56196052 99
2.6575208 -1.9996784 0.30735683 86
5.9243112 10.723022 1.8855692 62
6.0431252 4.4782095 1.4497838 39
4.3732638 0.90884393 0.91769493 7
3.3396652 -0.75568908 0.56255817 100
2.6608858 -1.9869777 0.30631715 86
5.8867092 10.74784 1.8948854 66
6.053596 4.5204349 1.4603642 38
4.3025169 0.90982008 0.90591013 8
3.3471324 -0.74449337 0.56396723 98
2.6642361 -1.9743108 0.30470037 82
5.8464851 10.767885 1.9055787 62
6.10326 4.5924597 1.4791619 38
4.3417716 0.9347589 0.91731501 7
3.3497109 -0.73280513 0.56396723 98
2.6795626 -1.9704952 0.30445439 85
5.8065066 10.788363 1.9119941 62
6.1246734 4.6438274 1.4940344 38
4.2616324 0.93386209 0.90189451 6
3.3619246 -0.7225756 0.5661903 99
2.6827877 -1.9577572 0.30341896 83
5.771225 10.822177 1.9250108 65
6.1574764 4.7043409 1.5118471 39
4.4057083 0.98156357 0.93721294 8
3.3644536 -0.7102282 0.56679046 99
2.6859548 -1.9450215 0.3023853 83
5.7238092 10.828669 1.9333743 63
6.1755848 4.7506909 1.5286244 37
4.3249035 0.98021287 0.92481911 8
3.3714516 -0.69942147 0.56940663 99
2.693023 -1.9351332 0.30296406 86
5.7235942 10.832837 1.9427078 62
6.1698079 4.7479615 1.5344563 38
4.3191838 0.97891659 0.9284367 9
3.3657188 -0.69884491 0.57339108 99
2.6884696 -1.9325731 0.30482075 79
5.7682252 10.821101 1.9399936 66
6.1518693 4.6983571 1.5271053 38
4.375144 0.97315109 0.9420684 7
3.3628147 -0.71172166 0.57459098 98
2.6888759 -1.9485679 0.30863547 83
5.8103476 10.804535 1.9386338 64
6.1244235 4.6453214 1.5164601 39
4.3211603 0.94453561 0.93049902 8
3.359889 -0.72397876 0.57639068 99
2.677521 -1.9553465 0.31048748 83
5.8503928 10.784058 1.9322103 71
6.0859489 4.5827618 1.5015819 38
4.3102384 0.92639583 0.92664158 9
3.347285 -0.73411119 0.57653111 98
2.6701608 -1.965018 0.31280205 82
5.8878307 10.7588 1.9271514 71
6.0534053 4.5202923 1.4876937 38
4.3230205 0.91257942 0.92946965 7
3.3443754 -0.7463308 0.57772726 98
2.6661608 -1.9786221 0.31443071 82
5.9374223 10.755621 1.9216793 65
6.0333123 4.4742012 1.4763776 39
4.3360782 0.89874786 0.93075544 7
3.3415191 -0.75856119 0.57832533 99
2.6550748 -1.9848045 0.31627363 78
5.9651127 10.712791 1.9135361 64
6.0135407 4.4270878 1.4663955 38
4.2862897 0.87283462 0.92020583 8
3.3338144 -0.76967168 0.57809037 98
2.6556451 -2.0004454 0.31838396 78
6.0005422 10.688468 1.906347 64
5.9825954 4.3705854 1.4522476 39
4.2656264 0.85235626 0.91429996 9
3.3307743 -0.78183931 0.57928467 99
2.6593499 -2.02002 0.3215625 86
6.052177 10.688478 1.9059014 65
5.951107 4.314218 1.4394238 39
4.230463 0.82921708 0.90531999 10
3.3277879 -0.79401851 0.57988185 100
2.6517494 -2.0296166 0.32389387 86
6.08429 10.65393 1.8993191 60
5.9150977 4.255127 1.4269321 40
4.2861753 0.82383579 0.91738546 10
3.3245599 -0.80613846 0.58167309 98
2.6398621 -2.0366397 0.32515696 75
6.1190257 10.624141 1.8892305 65
5.8865924 4.2035174 1.412575 39
4.3084159 0.81252611 0.92073411 9
3.3166978 -0.81711471 0.58143109 98
2.6401021 -2.0523047 0.32787853 80
6.1681838 10.619305 1.8879898 71
5.8699269 4.1592169 1.4049084 39
4.2291369 0.78306073 0.90401548 10
3.3089914 -0.82686466 0.5817827 100
2.6362989 -2.0648942 0.33070436 85
6.2048988 10.592929 1.8829448 67
5.8413715 4.1069078 1.3918743 38
4.2417626 0.76932949 0.90531999 9
3.30584 -0.83896226 0.58237797 97
2.6247163 -2.0713887 0.33138013 79
6.2468629 10.575501 1.8751283 71
5.8284073 4.0659533 1.3839378 40
4.2400231 0.75220948 0.90354085 10
3.2977233 -0.85039341 0.58213079 98
2.6244404 -2.087574 0.33353698 83
6.3010936 10.578576 1.8753577 76
5.7945395 4.0123291 1.3700086 40
4.2621927 0.74003947 0.9068929 10
3.294486 -0.86244869 0.58272517 100
2.6236649 -2.1042082 0.33628774 76
6.3274336 10.534782 1.8673038 72
5.7649031 3.9606264 1.3582933 39
4.1728096 0.7102735 0.88813955 8
3.2960758 -0.8745544 0.58535409 98
2.6126189 -2.1096239 0.33813471 73
6.365231 10.518529 1.8637636 80
5.7388229 3.9118252 1.3487614 40
4.1897445 0.69811618 0.89121974 8
3.2784746 -0.88275898 0.58340901 98
2.6202133 -2.1316686 0.34131756 78
6.4121418 10.508898 1.8574178 74
5.7291155 3.8745294 1.3406281 40
4.1972585 0.68356699 0.89150435 8
3.2703655 -0.89344382 0.58315396 100
2.5964375 -2.1289458 0.34165102 71
6.4547844 10.483899 1.8509717 76
5.6942739 3.8220668 1.3256198 40
4.1421232 0.65753007 0.8784616 6
3.257158 -0.90390205 0.58204871 97
2.5920322 -2.1420305 0.34274402 72
6.4872479 10.458783 1.8459324 79
5.6755557 3.7794032 1.3180286 41
4.1493807 0.64384121 0.87875384 9
3.2536275 -0.91577893 0.58322865 98
2.5950696 -2.1613631 0.34662297 78
6.5367084 10.452799 1.8402926 79
5.6569829 3.7371798 1.3080707 41
4.2486439 0.64330554 0.89848757 10
3.2457707 -0.92580712 0.58178937 100
2.5869908 -2.170743 0.34839123 76
6.5726805 10.425129 1.8352526 79
5.6381721 3.6951408 1.2981402 40
4.2364488 0.6255843 0.89541763 9
3.2420626 -0.93761247 0.58355653 97
2.5789244 -2.1801317 0.34957007 75
6.6032305 10.388988 1.8287462 78
5.5977187 3.6407592 1.2846835 40
4.1655822 0.60175395 0.88080215 9
3.2435656 -0.94971406 0.58499837 98
2.5745161 -2.1926351 0.35244581 75
6.6497846 10.378014 1.824497 79
5.5783935 3.5991645 1.2748092 46
4.1344914 0.58032906 0.87144697 13
3.2349069 -0.96129459 0.58473462 101
2.5738699 -2.2084122 0.35525823 80
6.6428394 10.284001 1.803504 39
5.5505619 3.5524631 1.26308 39
4.2191854 0.57645613 0.88807136 9
3.2218297 -0.97027403 0.58361459 98
2.5581872 -2.2112865 0.35480657 72
6.3785067 9.7958164 1.7178105 23
5.5345249 3.5136714 1.2564915 40
4.1674004 0.55530965 0.8783105 9
3.2184973 -0.98092288 0.58420181 98
2.5532398 -2.2241957 0.35769245 76
6.2029533 9.4502811 1.6571617 23
5.5180407 3.4762409 1.2476268 40
4.1306348 0.5357427 0.86940372 9
3.2145875 -0.99262232 0.58596349 101
2.5412395 -2.2301769 0.35834745 72
5.9814076 9.040349 1.5833141 30
5.4894633 3.4301975 1.2359725 40
4.0793014 0.51388896 0.85744822 7
3.2063038 -1.002337 0.58569187 98
2.5403099 -2.2458959 0.36176866 71
6.0177059 9.0231695 1.5783582 83
5.4733238 3.3922822 1.2260368 40
4.1103086 0.50249797 0.8635729 12
3.1932168 -1.0111082 0.5839743 98
2.5320139 -2.2551496 0.36236045 71
6.0482841 8.9974031 1.5738539 80
5.4355083 3.341332 1.2148145 45
4.0540261 0.47982562 0.85061115 9
3.1935303 -1.0253303 0.5865894 101
2.5338016 -2.2750471 0.36692622 80
6.0704255 8.9592428 1.5672029 21
5.4139514 3.3020966 1.2051195 40
4.0704947 0.46665311 0.85295576 10
3.1802859 -1.0339512 0.58545035 97
2.5249524 -2.2846735 0.36811489 75
nan nan nan 0
5.4007998 3.2669768 1.1995186 40
4.0768847 0.45369375 0.85397488 10
3.1767423 -1.0444598 0.586034 98
2.5127451 -2.2904336 0.36935776 72
nan nan nan 0
5.3751831 3.2246306 1.1889293 43
4.1030807 0.44066581 0.85834986 10
3.1819563 -1.0597297 0.58834553 99
2.5078516 -2.3028586 0.37168056 71
8.5764475 12.362898 2.15483 44
5.3619905 3.1900489 1.1811609 40
4.0756016 0.42261031 0.8515256 10
3.1686203 -1.0682058 0.58720124 97
2.4992988 -2.3119466 0.37286901 72
8.6648922 12.393154 2.1575451 40
5.3390498 3.1524761 1.1715562 40
4.0672383 0.4081153 0.84949082 11
3.1556413 -1.0754973 0.58605355 96
2.5015733 -2.3311229 0.37629244 72
8.736352 12.398345 2.1586068 39
5.3256731 3.1170616 1.1659862 49
4.0348125 0.38921899 0.84166193 10
3.1558564 -1.0897299 0.58750188 98
2.4891973 -2.3366942 0.37812912 73
8.8167849 12.415597 2.1590881 44
5.290669 3.070596 1.1536393 47
4.0752091 0.37804571 0.84979391 12
3.1469989 -1.0995975 0.58779907 96
2.4841785 -2.3491709 0.37927625 67
8.8914804 12.424068 2.1607742 43
5.2681661 3.0317774 1.1441048 53
4.0425172 0.36078501 0.84197009 10
3.1430449 -1.1105417 0.58838087 96
2.4884608 -2.3730438 0.38448223 75
8.9738197 12.451666 2.1625407 39
5.2572012 3.0023041 1.1373671 40
4.0193024 0.34528241 0.83689183 10
3.1485219 -1.124235 0.59070253 98
2.4804807 -2.3811898 0.38568249 82
9.0595503 12.464825 2.1601546 36
5.2257509 2.9589963 1.126039 40
4.0159221 0.32875761 0.83517295 10
3.1392565 -1.1351557 0.59041524 96
2.4644475 -2.3832164 0.38636291 69
9.1069069 12.443009 2.1588516 44
5.1932001 2.916672 1.1168244 33
3.9877048 0.31313887 0.82908422 10
3.1353779 -1.1455241 0.59099787 97
2.469835 -2.4060066 0.38980633 78
9.1825151 12.45031 2.1576846 40
5.1913142 2.8906353 1.1119859 19
4.0137248 0.29968005 0.83205086 11
3.1351781 -1.1597376 0.59303647 99
2.4635553 -2.419239 0.39217591 82
9.2683344 12.461637 2.1605518 39
5.2280307 2.8860278 1.1154199 18
3.9607837 0.28113326 0.82230246 9
3.1125691 -1.1637419 0.59012282 98
2.4545255 -2.4281075 0.39398372 82
9.3267288 12.44464 2.1524508 36
5.2510066 2.8748419 1.118174 20
4.0547023 0.27357817 0.84085798 11
3.1220002 -1.1803282 0.59332812 97
2.448982 -2.440448 0.39636096 83
9.3952503 12.449824 2.1531761 34
5.3525724 2.905 1.1353272 7
3.8849359 0.24782328 0.80404133 19
3.1128616 -1.1899315 0.59361637 99
2.4468851 -2.4562984 0.39931533 78
9.4652576 12.447445 2.1531878 32
nan nan nan 0
3.8369973 0.23199216 0.7932567 24
3.1088021 -1.2002102 0.59419799 98
2.4477632 -2.4761231 0.40285468 68
9.5446415 12.456815 2.1524734 29
nan nan nan 0
3.8329327 0.21764968 0.79224616 81
3.0951147 -1.2079796 0.59302247 98
2.4350944 -2.4814327 0.40349361 71
9.6300488 12.473319 2.1558058 28
10.213801 5.3988032 2.1432838 12
3.8238895 0.20374785 0.79022509 71
3.095052 -1.2210457 0.59506243 100
2.4293005 -2.4937468 0.40589297 74
9.7554827 12.540498 2.1651077 39
10.316927 5.4050279 2.1565468 2
3.8248138 0.18840294 0.78955674 83
3.0856731 -1.2310587 0.59476209 96
2.4165442 -2.4989111 0.40713415 63
9.8357 12.548442 2.1641862 53
10.444804 5.4256411 2.1793048 2
3.8107424 0.17504425 0.78652781 74
3.0814774 -1.2412455 0.59534186 98
2.4175375 -2.5183439 0.41070691 72
9.9220152 12.563449 2.1673405 41
10.404096 5.356164 2.1624758 3
3.8016014 0.15999898 0.78450847 90
3.085392 -1.2572409 0.59826893 99
2.4184191 -2.5378156 0.41429517 83
10.005725 12.574414 2.1669769 54
10.423992 5.3181663 2.1604335 4
3.7777801 0.14644833 0.77880031 68
3.0720072 -1.2636817 0.59708124 97
2.4089518 -2.5465047 0.41613063 72
10.067953 12.557874 2.1618905 40
10.46164 5.2891393 2.1599727 3
3.7783375 0.13128221 0.77880031 68
3.0667169 -1.2759231 0.59824073 98
2.4053555 -2.5632358 0.41915002 78
10.136183 12.548459 2.160919 33
10.524675 5.2749605 2.1649234 3
3.7738779 0.11793958 0.7777915 98
3.0712214 -1.2903918 0.6005947 99
2.3991785 -2.575506 0.42158508 78
10.020891 12.31752 2.1215189 29
10.546851 5.2423873 2.1637723 3
3.7746551 0.10543566 0.77581447 83
3.0576723 -1.2966454 0.59997982 96
2.3900738 -2.5837572 0.42281371 72
9.902029 12.076398 2.0809739 28
10.585462 5.2086926 2.1673863 4
3.7603271 0.091243729 0.77279568 83
3.04828 -1.3058648 0.59966969 99
2.3828888 -2.5968246 0.42525554 80
9.7606697 11.815407 2.0339849 30
10.706835 5.219759 2.1840079 2
3.7508566 0.076604463 0.77078319 96
3.0428212 -1.3180075 0.60082728 100
2.3765469 -2.6090455 0.4277024 79
9.6544075 11.595807 1.9945093 29
10.646862 5.1423101 2.1636493 2
3.7461929 0.064081982 0.76977694 83
3.0385299 -1.3281326 0.60024852 99
2.370147 -2.6212537 0.43015435 83
9.543807 11.385968 1.9559349 32
10.649998 5.1026239 2.1588883 2
3.746537 0.050352875 0.76912302 71
3.0332577 -1.3390909 0.60256344 99
2.3570578 -2.6260614 0.43139789 80
9.4330854 11.162549 1.9188547 28
nan nan nan 0
3.7417924 0.037225988 0.76811767 80
3.0284688 -1.349628 0.60314214 100
2.3571703 -2.6456299 0.43507352 86
9.393383 11.041091 1.898173 32
nan nan nan 0
3.712517 0.02332674 0.76208532 40
3.0188241 -1.3586136 0.60340285 99
2.3473067 -2.6540806 0.43692878 74
9.3702755 10.924768 1.8795164 29
10.953516 5.096076 2.2020168 1
3.7076828 0.0084124794 0.76107991 54
3.0132501 -1.3706774 0.60398066 98
2.3406856 -2.6662228 0.43939847 79
9.3619394 10.842085 1.8604523 23
nan nan nan 0
3.712986 -0.0045362702 0.76014125 75
3.0129175 -1.3832395 0.60487807 100
2.333071 -2.6791654 0.44187322 78
9.496419 10.916682 1.874077 10
4.9310431 2.2534451 0.98330778 11
3.6982553 -0.016782265 0.75713277 47
3.0037549 -1.3911117 0.60455841 97
2.3267984 -2.6908708 0.44435307 70
10.999866 12.560619 2.1566179 16
nan nan nan 0
3.6932814 -0.02900756 0.75612998 71
2.9989338 -1.4009756 0.60571384 97
2.3209429 -2.7021585 0.44683796 79
11.102348 12.584285 2.1587203 17
nan nan nan 0
3.7127497 -0.042121619 0.76014125 83
2.9981313 -1.4140104 0.6071924 100
2.3163593 -2.7188272 0.44995287 84
11.023703 12.403208 2.1286871 21
nan nan nan 0
3.6684897 -0.055067547 0.75111586 34
2.9882967 -1.4227843 0.60744691 97
2.3103824 -2.7300999 0.45245051 71
11.126072 12.426365 2.1307693 21
nan nan nan 0
3.6831946 -0.070077874 0.75283849 30
2.9823699 -1.4346768 0.60860217 97
2.3024409 -2.7429698 0.45495322 78
11.21855 12.437617 2.1337929 22
nan nan nan 0
3.6584685 -0.081105724 0.74783289 31
2.9734232 -1.4418932 0.60769784 100
2.2953939 -2.7550173 0.45746103 80
11.331273 12.470385 2.1405485 20
nan nan nan 0
3.6777351 -0.095020242 0.75183731 28
2.9768567 -1.4570587 0.61008495 98
2.2851281 -2.7632267 0.45933855 71
11.357562 12.40764 2.1279607 19
nan nan nan 0
3.6381891 -0.1073434 0.74382842 39
2.966897 -1.4656874 0.61033493 98
2.2779782 -2.7752306 0.46185383 75
11.544706 12.519643 2.1483724 16
nan nan nan 0
3.642906 -0.12148415 0.74355727 38
2.9651978 -1.4796857 0.61239862 100
2.2676892 -2.7834361 0.46310714 76
11.641926 12.53259 2.1488035 16
nan nan nan 0
3.6277957 -0.13302521 0.74055904 33
2.9557872 -1.4872525 0.61206758 98
2.2542017 -2.7876842 0.46434468 66
11.712023 12.515739 2.1471827 11
nan nan nan 0
3.6272323 -0.14758703 0.74055904 30
2.9498641 -1.4984941 0.61322254 98
2.2489939 -2.8041928 0.46813884 60
11.788959 12.505765 2.1467769 20
nan nan nan 0
3.6364837 -0.16068004 0.74255782 33
2.9441614 -1.5091981 0.61437744 100
2.2503533 -2.8280687 0.47324491 70
11.895758 12.522375 2.1482689 24
nan nan nan 0
3.6261437 -0.17227319 0.74055904 31
2.9435077 -1.52121 0.61529028 97
2.2439342 -2.8392751 0.47515738 55
7.9117937 8.2734346 1.4177514 23
nan nan nan 0
3.5914946 -0.18382263 0.73230797 38
2.9334583 -1.5296657 0.61495489 97
2.2394776 -2.8550854 0.47835916 60
7.8942094 8.194705 1.405176 37
nan nan nan 0
3.5957232 -0.19662569 0.73330569 40
2.9276421 -1.5403069 0.61610967 100
2.2288439 -2.863076 0.480259 59
7.8071966 8.0451555 1.3784709 34
nan nan nan 0
3.6096516 -0.21065968 0.73629874 85
2.9133735 -1.5458086 0.61543 96
2.227324 -2.8828599 0.48349899 59
7.7425919 7.9147601 1.35752 35
nan nan nan 0
3.6039655 -0.22358495 0.73530108 95
2.9161651 -1.5610137 0.61841899 98
2.2154758 -2.8914418 0.486678 58
7.6890335 7.8080449 1.3396999 36
nan nan nan 0
3.5984883 -0.23648813 0.73304456 98
2.9147484 -1.5740268 0.61933786 100
2.2077084 -2.9032838 0.48924991 64
7.6272097 7.6886916 1.318254 35
nan nan nan 0
3.5780885 -0.24769425 0.72906065 77
2.9130857 -1.586947 0.62141478 96
2.2088895 -2.9270411 0.49318895 65
7.5609326 7.5662122 1.2982082 34
nan nan nan 0
3.5771565 -0.26080692 0.72906065 85
2.8988187 -1.5923216 0.6201508 98
2.1920507 -2.9269783 0.49377075 63
7.5140648 7.4591842 1.2812593 28
nan nan nan 0
3.5763824 -0.27455974 0.72780859 97
2.8921189 -1.6037875 0.62188244 99
2.1988869 -2.9586451 0.49971539 66
7.4471803 7.3439169 1.2619907 24
nan nan nan 0
3.5754523 -0.28641796 0.72780859 80
2.8825898 -1.6110249 0.62038201 96
2.1814744 -2.9588799 0.50029695 60
7.3609991 7.2059069 1.2374308 35
nan nan nan 0
3.5644863 -0.29869175 0.72644436 85
2.8848481 -1.6261917 0.62454051 99
2.1850338 -2.9865632 0.50625175 70
7.3663068 7.1584191 1.2302673 39
4.5864568 1.6521302 0.85870761 14
3.5587385 -0.31134927 0.72420233 97
2.883426 -1.6386795 0.62546712 98
2.1710587 -2.9904003 0.50686407 72
7.2927566 7.0351572 1.2100811 37
4.5235991 1.6090021 0.84485894 50
3.5476182 -0.32285854 0.72345901 77
2.8686857 -1.6442419 0.62476814 97
2.1656666 -3.0060871 0.5108096 65
7.2470784 6.9399929 1.1947207 36
4.5386181 1.5965192 0.84575224 81
3.5369053 -0.33495882 0.72022867 85
2.8709579 -1.6595531 0.6277824 96
2.1592362 -3.0226717 0.51347208 65
7.2058887 6.8477001 1.1765493 36
4.5254226 1.5750333 0.84145331 80
3.5405304 -0.34839985 0.72122204 96
2.8691001 -1.6725386 0.62871242 99
2.1519105 -3.0336351 0.51610422 65
7.1444016 6.7396092 1.1607306 37
4.5129514 1.5521719 0.83549541 78
3.5247922 -0.35927844 0.71762341 88
2.8585262 -1.6804422 0.62893993 96
2.1462698 -3.0493054 0.52008206 67
7.1006303 6.649303 1.1444877 38
4.5046206 1.5308665 0.83290875 88
3.5185783 -0.37168026 0.71663082 93
2.8524542 -1.6902982 0.63009733 96
2.1338558 -3.057673 0.52203447 67
7.0597763 6.5626454 1.1306071 38
4.4963317 1.5096892 0.82949424 93
3.5269351 -0.38563928 0.71861595 98
2.8502669 -1.703148 0.63218987 99
2.1308825 -3.0773852 0.52672762 72
7.0075703 6.4663997 1.1133823 39
4.4788704 1.4855821 0.82271677 76
3.5063369 -0.39577761 0.71341401 82
2.8397985 -1.7110486 0.63125467 96
2.1306989 -3.1013453 0.530828 68
6.9546027 6.3704867 1.0979128 39
4.4563355 1.4599992 0.81674558 83
3.504739 -0.40861186 0.71402991 85
2.8417146 -1.7264313 0.63428575 97
2.1247375 -3.1170852 0.53420019 73
6.9158597 6.2885365 1.08319 38
4.4521675 1.441444 0.81421304 98
3.512949 -0.42262533 0.71601337 97
2.8438585 -1.7413535 0.63732362 99
2.1214609 -3.1369214 0.53828621 82
6.876461 6.2068224 1.0701721 39
4.4387875 1.4191591 0.80997139 87
3.4873815 -0.43190411 0.70982826 72
2.8290048 -1.746547 0.63602662 96
2.1070342 -3.140331 0.53956282 67
6.8329887 6.1222844 1.0550398 39
4.4440937 1.402923 0.80915803 92
3.485652 -0.4446674 0.71044153 88
2.8223958 -1.7567867 0.63718712 97
2.1008384 -3.1560373 0.54296046 73
6.7395463 5.9962811 1.0341831 36
4.4352303 1.3822696 0.80578119 97
3.4988225 -0.45938629 0.71218234 98
2.8242569 -1.7723399 0.6390695 99
2.0972819 -3.175868 0.5470798 73
6.7395425 5.9521661 1.0260584 39
4.4169912 1.3588438 0.79989576 78
3.4680545 -0.46766672 0.70624745 62
2.8054142 -1.7741946 0.63740462 96
2.0855229 -3.1833737 0.54840827 67
6.6868682 5.8621612 1.0116167 40
4.4032183 1.3369606 0.79568148 82
3.4661949 -0.48035765 0.70685822 75
2.8069849 -1.7896245 0.6404525 96
2.073632 -3.1906745 0.55106497 67
6.648478 5.7855482 1.001036 40
4.3985515 1.3187919 0.79317623 97
3.4646552 -0.4930934 0.70563668 98
2.8084788 -1.8050885 0.64350712 99
2.0692499 -3.2108471 0.55521488 73
6.6005859 5.6974721 0.98574936 40
4.3845892 1.2971098 0.78897399 89
3.4482412 -0.50304395 0.70328003 62
2.7975352 -1.8125783 0.6437245 97
2.0561349 -3.2188005 0.55788153 67
6.5555811 5.6207976 0.97318655 41
4.3752565 1.2769281 0.78562802 94
3.4512217 -0.51640433 0.70426917 85
2.7787652 -1.8142198 0.64145952 96
2.0521107 -3.2386043 0.56205702 65
6.5158539 5.5454259 0.96124083 37
4.3660955 1.2569075 0.78070122 97
3.4445825 -0.52832574 0.70267177 98
2.7884998 -1.8351876 0.64525515 99
2.0453348 -3.254231 0.56552011 69
6.4797077 5.4738388 0.94694608 38
4.3518414 1.2355498 0.7765246 93
3.4235897 -0.53734428 0.69750899 67
2.7692955 -1.83713 0.64356852 96
2.033289 -3.2615376 0.56686175 62
6.4399958 5.3980546 0.93513703 38
4.3469801 1.2169707 0.77404505 96
3.4167578 -0.54911095 0.69652241 72
2.770611 -1.8526621 0.64605147 97
2.0263672 -3.2771289 0.57033837 63
6.4016309 5.3279614 0.92538834 38
4.3084502 1.1899816 0.7664398 30
3.4242754 -0.56320155 0.69910127 97
2.7715671 -1.8680382 0.65028799 99
2.0192523 -3.2925401 0.57517344 65
6.3612256 5.2531199 0.91079479 38
4.2984934 1.1719038 0.761572 19
3.4034312 -0.57198197 0.69274235 64
2.7570961 -1.872314 0.64721489 97
2.0096889 -3.3040581 0.57658488 58
6.3230247 5.1827116 0.89971083 37
4.379456 1.1751103 0.77425969 15
3.3963614 -0.58360165 0.69235986 62
2.7499352 -1.8822149 0.64895982 97
1.9999112 -3.3152905 0.58002537 62
6.2922206 5.1190219 0.88835365 39
4.3600388 1.152786 0.76926464 19
3.4037366 -0.59772074 0.69493276 95
2.7468708 -1.8949392 0.65108043 98
1.9875903 -3.3223372 0.58205259 56
6.2570415 5.0524035 0.87792581 39
4.3837042 1.1418694 0.7702558 21
3.387392 -0.6070469 0.69077438 59
2.7442691 -1.9073168 0.65203792 96
1.9878575 -3.3505969 0.58780932 57
6.2059398 4.9736733 0.86538291 39
4.4023147 1.1295033 0.77197707 13
3.3802037 -0.61855412 0.69039011 69
2.7369802 -1.9171661 0.65378773 97
1.9792458 -3.3668077 0.5913462 59
6.1932411 4.9263263 0.85829365 39
4.4013877 1.1137223 0.77034736 12
3.3877885 -0.63278347 0.69115686 96
2.7379525 -1.9328446 0.65570778 99
1.9729483 -3.3817139 0.59420997 57
6.1501417 4.8536043 0.84419817 38
4.3291631 1.0785791 0.75540721 9
3.3711176 -0.64246523 0.68760848 62
2.7267582 -1.9399557 0.65533179 96
1.9652828 -3.3971195 0.5984506 51
6.1328983 4.8036232 0.836658 39
4.3954601 1.0780017 0.76546848 9
3.3641591 -0.65331697 0.686028 77
2.719784 -1.9493288 0.65649986 97
1.951474 -3.4047089 0.60050547 54
6.0958543 4.7386618 0.82514048 39
4.3758068 1.0561942 0.75894243 10
3.3665516 -0.6665951 0.68700945 90
2.7244599 -1.9678353 0.65997434 99
1.941268 -3.4158611 0.60331899 48
6.0741577 4.6861806 0.8158105 39
4.375237 1.0391012 0.75575674 10
3.354825 -0.67706072 0.68325472 74
2.7172291 -1.9778078 0.65997434 96
1.9383355 -3.4399912 0.60773289 45
6.0472832 4.631865 0.80733567 39
4.3212214 1.0103511 0.74581254 9
3.3476384 -0.68778032 0.68227583 80
2.7101228 -1.9871444 0.66114742 96
1.9303789 -3.4554222 0.61132669 40
6.0187588 4.5717988 0.79573542 40
4.3348866 0.9968037 0.74514097 10
3.3500109 -0.70107424 0.68265736 97
2.7029142 -1.9971325 0.66056091 99
1.9199396 -3.4665158 0.61416477 40
5.9904394 4.5190396 0.78735751 39
4.3434486 0.98202521 0.74518991 11
3.3331475 -0.71030664 0.67912847 61
2.6992331 -2.0097485 0.66328728 96
1.9118223 -3.4819088 0.61777633 40
5.9675908 4.4675779 0.7769357 40
4.2943149 0.95438606 0.73457676 11
3.3307638 -0.72196227 0.67853367 74
2.6922014 -2.0191584 0.66328728 96
1.905978 -3.5016248 0.62216902 40
5.9370074 4.4092107 0.76813477 42
4.2499738 0.92819834 0.72406399 10
3.3331156 -0.73527277 0.67831862 96
2.6964312 -2.0378156 0.66677791 98
1.8953737 -3.5127437 0.62433332 42
5.8975058 4.3464274 0.75578839 39
4.2681861 0.91579902 0.7242412 11
3.3211732 -0.74541384 0.67458731 66
2.6851335 -2.0447831 0.66522104 96
1.8853278 -3.5235012 0.62650102 40
5.8745279 4.2947826 0.74430734 40
4.3106246 0.908391 0.72771263 13
3.3093302 -0.75489897 0.67086601 64
2.6741791 -2.0512283 0.66366595 96
1.8769785 -3.5390184 0.62874895 40
5.8801265 4.2973013 0.73464769 40
4.3073134 0.90690821 0.7184484 12
3.3202612 -0.75739247 0.66567385 96
2.6871355 -2.0604215 0.66065514 98
1.8779036 -3.5392704 0.62455362 40
5.9174824 4.3563709 0.73732388 44
4.2854295 0.91793412 0.71140236 9
3.3282392 -0.74699974 0.66365659 96
2.6874061 -2.045032 0.65520412 98
1.8895055 -3.5283475 0.61889398 40
5.9374366 4.4047079 0.7418167 40
4.291965 0.93501502 0.71223795 10
3.3263876 -0.73378867 0.66151267 90
2.6913304 -2.032485 0.65189749 98
1.8979831 -3.5131764 0.61388153 40
5.9731584 4.4652419 0.74700475 40
4.2793555 0.94871026 0.70757747 12
3.3296177 -0.7217139 0.65853983 66
2.6835899 -2.0112367 0.64459032 96
1.9039558 -3.4935524 0.60882485 40
5.9963856 4.5169597 0.7532984 40
4.3241224 0.97527617 0.71477205 12
3.342057 -0.71220529 0.65864855 93
2.6991849 -2.0075166 0.64412957 99
1.9128978 -3.4781098 0.60315567 40
6.0154543 4.5659781 0.75779122 39
4.3833642 1.0047296 0.7243346 11
3.3542562 -0.70196265 0.66054118 96
2.6988924 -1.9919772 0.64049262 98
1.9186418 -3.4584734 0.59814137 41
6.0548105 4.629252 0.7647801 40
4.3749676 1.0196967 0.72275549 11
3.3427157 -0.68676901 0.6559155 66
2.7025726 -1.9794332 0.63721627 97
1.9291445 -3.4475574 0.59394634 43
6.08499 4.6877651 0.77211118 40
4.3763084 1.0361285 0.72276479 11
3.3598695 -0.67807883 0.65695214 96
2.7101688 -1.9697756 0.63487744 98
1.9340917 -3.4226756 0.58754236 51
6.1265006 4.7556272 0.78231949 40
4.3483605 1.0463574 0.71957856 11
3.3623323 -0.66575968 0.65695214 96
2.7172074 -1.9604328 0.63370788 98
1.9443773 -3.4116225 0.5840621 50
6.1404862 4.8026528 0.78497344 39
4.3733907 1.069353 0.72355819 9
3.365087 -0.65349716 0.65515745 69
2.7127481 -1.942137 0.6285913 97
1.9570712 -3.4048257 0.58132046 52
6.1733112 4.8648987 0.79560113 38
4.3887291 1.090166 0.72594249 11
3.3771086 -0.64360702 0.65643466 88
2.7321341 -1.940909 0.62961388 98
1.9647785 -3.3894207 0.57712126 54
6.2079144 4.9256268 0.80076414 40
4.4185295 1.113958 0.73069471 12
3.3893263 -0.63307065 0.65710658 95
2.7395885 -1.9311351 0.6272741 98
1.9705397 -3.3694737 0.57152909 59
6.2245703 4.9761281 0.80807012 37
4.4525542 1.1399087 0.73783016 14
3.3820736 -0.61889631 0.65463448 64
2.7347445 -1.9127554 0.62334991 97
1.9754878 -3.3497007 0.56731981 58
6.2664018 5.0509338 0.81754541 38
4.357686 1.132656 0.72198659 23
3.3938825 -0.60882145 0.65650487 85
2.7461317 -1.9057692 0.62193447 98
1.9854748 -3.338609 0.56320852 64
6.2997189 5.1123438 0.82553011 37
4.3633752 1.1504096 0.72278231 17
3.4061055 -0.59813678 0.65656459 90
2.749228 -1.8930266 0.61985475 98
1.9928097 -3.3231578 0.55906856 58
6.3347402 5.1793876 0.83404428 37
4.3687901 1.1689794 0.72357464 16
3.4035463 -0.58483618 0.65502924 67
2.7565045 -1.8831811 0.61752433 97
2.002667 -3.3120122 0.55497718 57
6.3730779 5.2498245 0.84453189 37
4.3357668 1.1771891 0.71961915 18
3.4201002 -0.57539707 0.65782458 96
2.7636554 -1.8732466 0.61577624 99
2.0089872 -3.2912495 0.5501563 56
6.4072647 5.3175244 0.85310769 38
4.3458238 1.1970392 0.72120488 69
3.4370687 -0.56530571 0.65879607 97
2.7705336 -1.8638276 0.61344528 97
2.0226843 -3.2891126 0.54816693 70
6.4486699 5.3919249 0.86272871 37
4.3462524 1.2134955 0.72278231 84
3.4197149 -0.54958618 0.65507931 62
2.7734334 -1.8510491 0.61137789 97
2.0244915 -3.2651703 0.54267383 55
6.4855752 5.4632964 0.87482631 37
4.3656492 1.2361772 0.7259444 99
3.4412336 -0.54011357 0.6581881 97
2.7844779 -1.8437047 0.61111397 98
2.0377328 -3.2572577 0.54066217 67
6.5071034 5.5223308 0.88195992 37
4.3756418 1.2546951 0.72910869 97
3.4481816 -0.52887779 0.65789878 97
2.7874613 -1.8310198 0.60788578 98
2.0408535 -3.2383127 0.53523183 66
6.562305 5.610683 0.89374608 40
4.3704476 1.2722143 0.72990316 86
3.4550226 -0.5157401 0.65943509 64
2.7907557 -1.8171893 0.60640794 97
2.051379 -3.2262294 0.53187054 63
6.5877872 5.6723943 0.90144134 40
4.394515 1.2958767 0.7338534 97
3.4521673 -0.50300139 0.65728986 97
2.8018849 -1.8098469 0.60497516 99
2.0612781 -3.2144718 0.52851576 73
6.6333303 5.7561107 0.91378969 39
4.4039268 1.316216 0.73622572 96
3.4635456 -0.49293548 0.65914142 97
2.7956238 -1.7926922 0.60113913 97
2.067868 -3.1988847 0.52448571 71
6.683207 5.8424687 0.9251703 40
4.4036746 1.333742 0.73781961 75
3.4609697 -0.47840232 0.65638632 67
2.80284 -1.7821691 0.59882045 96
2.0770733 -3.1874399 0.52114779 63
6.7035861 5.9016933 0.93398923 40
4.4276733 1.3570563 0.74176133 97
3.4917572 -0.47086301 0.66192549 96
2.8172336 -1.7782295 0.59943181 99
2.0916612 -3.1842494 0.51916677 76
6.7513065 5.9898767 0.94702053 39
4.4322152 1.3753912 0.74415284 96
3.4932647 -0.45865658 0.66254044 98
2.8197381 -1.7653913 0.59738517 98
2.0980468 -3.1686008 0.51516354 77
6.8030853 6.0805235 0.96223372 39
4.4406614 1.3975793 0.74734032 78
3.4854019 -0.44463551 0.65946585 75
2.8221858 -1.7525581 0.59534186 97
2.0993412 -3.1442616 0.51049739 70
6.8323603 6.151885 0.97117966 38
4.4591522 1.4213822 0.75048602 98
3.506516 -0.4342739 0.66315526 97
2.8287671 -1.7423114 0.59418219 98
2.1066086 -3.1278834 0.50652671 75
6.8843884 6.242382 0.98330653 38
4.4589887 1.4376361 0.7520954 97
3.5178838 -0.423219 0.6643815 97
2.8312867 -1.7295815 0.59098583 99
2.1171675 -3.1211724 0.50389379 76
6.9333954 6.3354998 0.99874657 39
4.4628248 1.456952 0.7553193 76
3.5096488 -0.40918431 0.66253853 80
2.8415163 -1.7222395 0.59186274 97
2.1147549 -3.0931518 0.49862126 67
6.9744263 6.4155602 1.0093887 38
4.5000248 1.4864984 0.76164019 96
3.5306585 -0.39852288 0.66622442 96
2.8481631 -1.7120258 0.58954287 99
2.1262748 -3.0856662 0.49600524 73
7.0115957 6.4996314 1.0200603 38
4.4993544 1.5045897 0.76160556 88
3.5373273 -0.38615084 0.66528285 98
2.8505423 -1.6992643 0.58635277 99
2.1332321 -3.0693185 0.49143139 75
7.0661216 6.6008029 1.0367935 38
4.5123878 1.527359 0.76560706 73
3.5237608 -0.3722277 0.66376311 90
2.8525126 -1.6862993 0.58548284 97
2.138926 -3.0535684 0.48817584 62
7.1176629 6.6909471 1.0491595 38
4.5298562 1.5517998 0.77124542 96
3.5448897 -0.36132696 0.66620177 97
2.8675225 -1.6810201 0.58490235 99
2.1479709 -3.0415606 0.48492724 68
7.1421776 6.7658377 1.0600686 37
4.5431967 1.5741109 0.77358669 81
3.5510814 -0.34881231 0.66712064 96
2.8653259 -1.6656516 0.58201247 99
2.1593003 -3.0339427 0.48232758 65
7.2033749 6.8740797 1.0764002 37
4.5652204 1.6005064 0.77919644 102
3.5475001 -0.33596218 0.6655798 85
2.8715873 -1.6552397 0.58085549 97
2.1532114 -3.0020354 0.47653979 63
7.2531152 6.9725175 1.0911975 37
4.5078931 1.5989854 0.77212 32
3.5584972 -0.32384861 0.66741586 96
2.8732476 -1.6428617 0.5788371 99
2.1672509 -2.9983444 0.47524241 68
7.3022227 7.0714049 1.1060674 38
4.6089911 1.6538887 0.78959233 14
3.5645568 -0.3112314 0.66833389 97
2.8837106 -1.6348486 0.5785414 100
2.1726289 -2.9826968 0.47074828 68
7.3720431 7.1915636 1.1242659 39
nan nan nan 0
3.5558257 -0.29796603 0.66649783 70
2.8769767 -1.6171261 0.57481045 97
2.1778216 -2.9669149 0.46755579 60
7.3843513 7.2565813 1.1338484 26
nan nan nan 0
3.5813904 -0.28689364 0.67108804 97
2.8916657 -1.6114641 0.57537079 100
2.18349 -2.9508173 0.46373296 69
7.4598541 7.3847179 1.1532983 18
nan nan nan 0
3.5825346 -0.27377418 0.670461 97
2.8979034 -1.6010487 0.57305962 100
2.1914699 -2.9390118 0.46118677 66
7.5169125 7.4959502 1.1701095 20
nan nan nan 0
3.588604 -0.26164156 0.67012221 77
2.8952847 -1.585779 0.57020181 97
2.2004616 -2.9264822 0.45800662 69
7.562582 7.5969772 1.1872264 35
nan nan nan 0
3.5993466 -0.24916585 0.67195314 97
2.9142432 -1.5823048 0.57159746 100
2.2103465 -2.9194233 0.45545033 65
7.6323476 7.7234716 1.2045329 36
nan nan nan 0
3.6002357 -0.2359719 0.67195314 97
2.9155855 -1.569881 0.56959224 99
2.213207 -2.8989465 0.45105278 60
7.6975017 7.8467197 1.2251728 35
nan nan nan 0
3.6008415 -0.22276028 0.67321253 82
2.9170601 -1.5569109 0.56816763 97
2.2179091 -2.8831353 0.44792089 59
7.7552109 7.963726 1.2409598 34
nan nan nan 0
3.606739 -0.21048971 0.67286861 97
2.9272778 -1.5486059 0.56785834 100
2.2194839 -2.8634045 0.44419077 65
7.815309 8.0845137 1.2612709 35
nan nan nan 0
3.6222107 -0.19807412 0.67561501 96
2.9287448 -1.5356697 0.56585908 98
2.2240441 -2.8476708 0.44045141 58
7.9057288 8.2382593 1.2847636 39
nan nan nan 0
3.6130941 -0.18429591 0.67378408 65
2.9301553 -1.5227432 0.56386304 97
2.2320342 -2.835391 0.43795705 58
7.9128685 8.306426 1.2949182 15
nan nan nan 0
3.6333551 -0.1726158 0.67744595 96
2.9448307 -1.5166874 0.56323385 99
2.2426481 -2.8274894 0.43480784 68
12.961533 13.706436 2.1359935 27
nan nan nan 0
3.6339636 -0.15929773 0.67744595 96
2.9457169 -1.5041571 0.56239569 98
2.2499917 -2.815491 0.43295169 69
12.840411 13.668867 2.1334374 22
nan nan nan 0
3.6296115 -0.14578025 0.67653048 55
2.9426754 -1.4890317 0.55899268 97
2.2511442 -2.7958593 0.42865685 66
12.720833 13.650973 2.1259563 13
nan nan nan 0
3.6497469 -0.13383013 0.68019235 85
2.9571009 -1.482743 0.55950916 100
2.2687962 -2.7947414 0.42732963 73
12.563378 13.571965 2.1169615 17
nan nan nan 0
3.6600385 -0.12077648 0.68202329 87
2.9671059 -1.4741753 0.55918652 99
2.2750502 -2.7835305 0.42485791 83
12.471087 13.581223 2.1203613 18
nan nan nan 0
3.6604564 -0.10736096 0.68202329 40
2.9682407 -1.4611989 0.55719954 97
2.280031 -2.7668822 0.42180708 71
12.301878 13.486448 2.1024125 18
nan nan nan 0
3.6657231 -0.094709896 0.68293875 48
2.9734104 -1.4508716 0.55662215 99
2.2871253 -2.7548556 0.41934818 80
12.289974 13.582509 2.1226382 19
nan nan nan 0
3.6906168 -0.081818432 0.68751609 56
2.9788828 -1.4400481 0.55546725 98
2.3010137 -2.7500303 0.41805238 83
12.251256 13.6303 2.1269877 24
nan nan nan 0
3.6712334 -0.067927361 0.68385422 40
2.9754202 -1.424944 0.55266005 97
2.2984607 -2.7266107 0.41324678 70
12.213699 13.689101 2.1388996 18
nan nan nan 0
3.6862028 -0.054689929 0.68660063 52
2.9941638 -1.420453 0.55398154 100
2.3086247 -2.7183871 0.41075704 80
12.119898 13.684607 2.140944 18
nan nan nan 0
3.7109466 -0.04210116 0.69117796 97
2.9994373 -1.4095103 0.55340308 99
2.3122072 -2.7024677 0.40837139 82
12.141298 13.810423 2.1601586 14
5.0046811 2.2586489 0.90603417 13
3.6963303 -0.028386336 0.68843156 49
3.0002873 -1.3965076 0.55142444 98
2.3222823 -2.6941903 0.40588829 72
nan nan nan 0
4.937726 2.2502513 0.89734572 1
3.7111557 -0.014897614 0.69117796 75
3.0097969 -1.3881724 0.55108929 100
2.3345988 -2.6903868 0.40459013 84
9.4151258 10.869119 1.6994317 6
nan nan nan 0
3.721015 -0.0032471989 0.6930089 73
3.0144711 -1.3782238 0.55051076 99
2.3385096 -2.6740818 0.40160158 83
9.3363504 10.850677 1.6992984 22
nan nan nan 0
3.7110503 0.010363233 0.69182569 42
3.0196772 -1.3672453 0.54935378 99
2.3353412 -2.6507893 0.39688861 71
9.2862644 10.872819 1.7050171 18
10.970428 5.1389236 2.0098717 9
3.7306483 0.02409181 0.69549102 78
3.0292568 -1.3582258 0.5495919 101
2.349401 -2.6452639 0.39559445 82
9.3099804 10.981836 1.724396 21
11.013308 5.2083178 2.0255811 2
3.7450361 0.037911959 0.69954729 97
3.0298808 -1.3451898 0.54761803 100
2.3559048 -2.6330855 0.39318889 79
9.4514675 11.231935 1.7634135 29
nan nan nan 0
3.7497952 0.051051248 0.70046532 83
3.0349658 -1.3341526 0.54646087 99
2.3656771 -2.6245854 0.39133888 78
9.5401134 11.421994 1.7956564 30
nan nan nan 0
3.7595341 0.064966552 0.7016452 97
3.0442152 -1.3255581 0.54669452 102
2.3720775 -2.6123693 0.38894093 84
9.6593552 11.65129 1.831486 29
11.313954 5.5010834 2.1029866 1
3.7688532 0.078946218 0.70479548 97
3.0446973 -1.3125138 0.54472488 99
2.3784187 -2.6001401 0.38654807 83
9.7862806 11.892838 1.8719875 29
11.209272 5.5010729 2.0895026 2
3.7685547 0.092101492 0.70479548 88
3.0541131 -1.3033196 0.54495597 98
2.3813329 -2.5842433 0.38361773 68
9.9146795 12.139285 1.9133751 28
11.290672 5.5924625 2.1084831 1
3.7878437 0.10646567 0.70847112 99
3.06359 -1.294111 0.54460484 101
2.3943069 -2.579288 0.38231772 83
10.04904 12.387412 1.9528724 26
11.209644 5.5986967 2.1013038 1
3.7627432 0.11956373 0.70453364 39
3.0638475 -1.2810068 0.54321724 100
2.4009335 -2.5665913 0.37993756 83
10.171898 12.637733 1.9947858 27
11.216455 5.651104 2.1062655 3
3.7328331 0.13165802 0.69901514 59
3.0732567 -1.2717279 0.54286343 99
2.4070511 -2.5543005 0.37756252 71
10.286983 12.88167 2.0328815 27
11.105132 5.6510253 2.0940759 2
3.7519693 0.14610358 0.70269412 73
3.0777647 -1.2610284 0.54228294 101
2.409687 -2.5383928 0.37466037 78
10.438598 13.165511 2.0808437 27
11.245981 5.7746878 2.1291499 4
3.7660162 0.16047671 0.70611131 92
3.087115 -1.2516648 0.54192472 99
2.4191098 -2.5296853 0.37282774 78
10.567565 13.42898 2.1254349 27
nan nan nan 0
3.7507055 0.1729425 0.70334947 49
3.0826085 -1.2367015 0.53973937 99
2.4181516 -2.5101993 0.36941406 74
10.593934 13.564496 2.1498756 36
11.186923 5.8434105 2.132437 2
3.76968 0.18766578 0.70703197 88
3.0964704 -1.2291062 0.5401805 100
2.4240072 -2.4978895 0.36706463 75
10.498097 13.543825 2.1465611 40
11.163744 5.8859744 2.1368425 3
3.832639 0.20488487 0.71966982 78
3.101042 -1.2177832 0.539599 99
2.4341934 -2.4883215 0.36463457 76
10.420475 13.545928 2.1499169 45
11.34374 6.0290341 2.1797233 2
3.7975554 0.21630578 0.71321946 30
3.101059 -1.2046899 0.53763831 100
2.4285636 -2.4661529 0.36134279 79
10.30987 13.504277 2.1463315 44
5.2651286 2.823137 1.0158324 4
3.8699369 0.23466168 0.72907168 18
3.1189787 -1.1991378 0.5406146 101
2.4416509 -2.4604738 0.36004701 89
10.220456 13.489381 2.1500006 39
5.2447724 2.8393877 1.016238 16
3.9426072 0.253575 0.74293238 13
3.1096878 -1.1825018 0.53705764 100
2.4410892 -2.440237 0.35669008 85
10.128763 13.470649 2.1470618 46
5.2213526 2.8515043 1.0137185 19
3.9808717 0.27069056 0.75032473 10
3.1187093 -1.1728669 0.53727299 97
2.4501488 -2.4314048 0.35488281 78
10.022293 13.431255 2.1438315 43
5.2331467 2.8805158 1.0200031 19
4.0238829 0.28772962 0.75934523 11
3.1277013 -1.1631817 0.53748649 99
2.4547877 -2.4199045 0.3525666 78
9.9194288 13.395556 2.1382298 42
5.1710377 2.8698936 1.0119685 17
3.9983017 0.30063382 0.75472069 10
3.141386 -1.1551825 0.53790838 98
2.4681702 -2.4136376 0.35126787 83
9.8461084 13.39895 2.1418467 41
5.224678 2.9247625 1.0267082 40
4.0019398 0.31566229 0.75634629 10
3.1315694 -1.1391791 0.53494668 97
2.4664237 -2.3943079 0.34794959 76
9.731554 13.345292 2.1422079 42
5.2350659 2.9558299 1.0330319 47
4.025034 0.33162525 0.76238489 10
3.1402812 -1.1293327 0.53632164 98
2.4716442 -2.3818421 0.346847 76
9.6676044 13.360179 2.1447489 43
5.2581382 2.9943256 1.0419182 52
3.9991834 0.34425724 0.75844806 11
3.1400995 -1.1162869 0.53320187 97
2.46979 -2.362658 0.34235641 73
9.6092405 13.382527 2.1514409 39
5.276721 3.0305736 1.0499816 40
4.0321484 0.3619878 0.7649464 11
3.1442575 -1.1048011 0.53262019 85
2.4713473 -2.3468611 0.33957529 63
9.5107832 13.348404 2.1461558 37
5.3041668 3.0710087 1.0597727 57
4.0160527 0.37467891 0.76286542 11
3.157702 -1.0965393 0.53361493 97
2.492152 -2.3468432 0.33927011 75
9.3893843 13.280752 2.1412818 39
5.3269138 3.1103029 1.0665879 45
4.0731974 0.39507446 0.77472997 10
3.1662681 -1.0871438 0.53381878 98
2.4927397 -2.3318484 0.3370924 76
9.3229208 13.289811 2.1458666 38
5.3448744 3.1471148 1.0747166 40
4.0521698 0.40803206 0.7710098 11
3.1657317 -1.074005 0.53186458 98
2.4949141 -2.3151734 0.33432755 73
9.2027149 13.221265 2.1379206 40
5.3707771 3.1889343 1.08676 50
4.0210037 0.4190771 0.76754636 10
3.1789224 -1.0655037 0.53402102 99
2.4998085 -2.3027213 0.33265239 73
9.1302147 13.21032 2.1369481 40
5.3928642 3.2288411 1.0936166 47
4.1171184 0.44435421 0.78619874 10
3.1828947 -1.0538745 0.53343582 98
2.5112302 -2.2978954 0.33135718 76
9.0566578 13.217015 2.1435173 40
5.4105897 3.2651644 1.1029251 40
4.0567446 0.4528861 0.77571976 10
3.1868246 -1.0422305 0.53285062 98
2.51315 -2.281184 0.32920358 73
8.9601583 13.179523 2.1405911 40
5.4403315 3.3103752 1.1137446 45
4.0842824 0.47040054 0.78203821 10
3.1953189 -1.0326757 0.53246325 100
2.5290165 -2.2787356 0.3283866 78
6.0476346 8.9626122 1.4580152 33
5.4528508 3.3454397 1.1222626 43
4.1749272 0.49635193 0.80125815 11
3.1989937 -1.0209291 0.53304929 98
2.5337696 -2.2662473 0.32612664 79
6.0334702 9.0126905 1.4702647 79
5.4651794 3.3806362 1.1308111 40
4.0705676 0.4990817 0.78231692 9
3.2028029 -1.0092254 0.53246325 98
2.5309777 -2.247107 0.32351273 68
5.9891486 9.017807 1.4713571 73
5.5070701 3.4345205 1.1420759 54
4.1173015 0.52013612 0.79241037 9
3.2112849 -0.9989742 0.53265935 101
2.5397141 -2.237484 0.32174054 75
6.0316634 9.1544485 1.4997793 24
5.5199895 3.468055 1.1518265 41
4.0859656 0.53067428 0.78822201 9
3.2150133 -0.98722476 0.53207237 99
2.5438046 -2.2253647 0.32067752 72
6.2444153 9.55338 1.5654353 23
5.548224 3.5155787 1.1605262 40
4.171751 0.5573715 0.80439812 9
3.2185287 -0.97602326 0.53148538 97
2.5524993 -2.2157269 0.31831786 71
6.4298892 9.9163094 1.6273379 22
5.5678082 3.5566556 1.1720985 50
4.1498022 0.56992799 0.80283695 7
3.2220845 -0.96422023 0.53148538 99
2.5644584 -2.2096784 0.31760505 75
6.6447415 10.330407 1.7000247 52
5.5972104 3.6016281 1.1819941 43
4.1622357 0.58644569 0.8063941 11
3.2304225 -0.95382905 0.5316779 98
2.572624 -2.2003365 0.31642339 76
6.6303291 10.391516 1.7126487 86
5.5906191 3.6292036 1.1860694 39
4.1260395 0.59677678 0.7997998 7
3.2339854 -0.94200844 0.53109002 98
2.5663764 -2.1772158 0.31279996 69
6.5809641 10.397998 1.7184877 78
5.6358838 3.6852098 1.2006837 42
4.1622639 0.61759913 0.8095395 11
3.2469997 -0.93290234 0.53205788 100
2.5850873 -2.1783881 0.31300813 79
6.5502281 10.433865 1.727013 77
5.6627316 3.7324653 1.2141957 39
4.1502352 0.63062799 0.80838299 9
3.2501469 -0.92153716 0.53264749 99
2.5824339 -2.158484 0.31045035 73
6.5168571 10.465696 1.732705 80
5.6822896 3.7738745 1.2224352 39
4.2253747 0.65789878 0.82425696 7
3.2490141 -0.90836364 0.53010243 98
2.5866623 -2.1459634 0.30764478 69
6.4550204 10.45565 1.7378619 69
5.708602 3.8215759 1.2360514 40
4.2709875 0.68104345 0.83598495 9
3.2617557 -0.89904964 0.53224522 99
2.5983951 -2.1396677 0.30751306 76
6.4259257 10.490266 1.7442569 76
5.7312694 3.8672452 1.2440201 40
4.1910615 0.6833086 0.82080251 10
3.2746518 -0.88970321 0.533207 98
2.6063442 -2.1302311 0.30575061 78
6.3823953 10.509588 1.7521393 74
5.7407484 3.9043386 1.25418 39
4.2125978 0.70267981 0.8262924 11
3.282418 -0.87952131 0.53457618 97
2.6184552 -2.1234117 0.30502614 75
6.3432002 10.531859 1.760723 72
5.7747364 3.958487 1.2672902 40
4.277597 0.72964627 0.84034646 9
3.2811141 -0.8662951 0.53202248 100
2.6030681 -2.0951655 0.30057326 80
6.3015451 10.549996 1.7664487 69
5.8082123 4.0128045 1.2816737 39
4.2262349 0.73607594 0.83308655 9
3.2937381 -0.85672688 0.53416526 99
2.626334 -2.0980763 0.30177838 83
