# .PCD v0.7 - Point Cloud Data file format
VERSION 0.7
FIELDS x y z intensity
SIZE 4 4 4 4
TYPE F F F F
COUNT 1 1 1 1
WIDTH 1395
HEIGHT 1
VIEWPOINT 0 0 0 1 0 0 0
POINTS 1395
DATA ascii
5.5696473 5.5541153 -0.55140257 14
6.395721 2.4192929 -0.54897112 21
6.9147067 -0.42897868 -0.55254596 22
nan nan nan 0
2.3639164 -3.015898 -0.15323663 63
5.458478 5.4035001 -0.54516828 15
6.3868537 2.385406 -0.55094045 22
6.8833432 -0.45236465 -0.54895693 22
nan nan nan 0
2.349349 -3.0211337 -0.14902918 67
5.4493794 5.3550901 -0.55033737 12
6.3486233 2.3446486 -0.54927558 24
6.9063077 -0.47930241 -0.55335677 22
nan nan nan 0
2.3322337 -3.0219152 -0.14530897 63
5.4222198 5.289475 -0.55227792 13
6.3475409 2.3178463 -0.55200493 22
6.9692307 -0.5105654 -0.55609649 20
nan nan nan 0
2.3242714 -3.0345287 -0.14149645 66
5.4143939 5.2395878 -0.55594468 14
6.3187127 2.2798607 -0.5510931 23
6.9123654 -0.5343048 -0.55294353 21
4.9273005 -2.6909153 -0.34829748 1
2.3011124 -3.0272129 -0.13743833 65
5.2993469 5.0925546 -0.54746234 13
6.2978997 2.2487757 -0.55097455 22
6.9801078 -0.5628323 -0.55850869 20
4.866045 -2.6784496 -0.34167403 1
2.2840683 -3.0277612 -0.13310553 63
5.2274384 4.9867282 -0.54448175 13
6.255384 2.2040958 -0.54877353 23
6.9184904 -0.58461004 -0.55131495 21
4.8302736 -2.6818743 -0.33501089 4
2.2640402 -3.0242035 -0.12928274 63
5.1781955 4.9002008 -0.54480827 13
6.2630572 2.1810272 -0.55340356 23
6.8663435 -0.60797334 -0.54856026 22
nan nan nan 0
2.245991 -3.0253325 -0.12565264 72
5.1868739 4.8759122 -0.54901636 14
6.2229652 2.1439536 -0.55154335 24
6.8741055 -0.63285148 -0.54935354 21
4.7885365 -2.7059147 -0.32869804 2
2.2360232 -3.0328679 -0.12170684 71
5.1679125 4.8225303 -0.55134034 12
6.1985946 2.1065526 -0.55204868 23
6.8817587 -0.65900147 -0.5489403 21
4.8611279 -2.7704899 -0.33143568 1
2.2179933 -3.0338354 -0.11810445 70
nan nan nan 0
6.1817508 2.077987 -0.55222458 25
6.9189758 -0.68816644 -0.5521065 21
4.6953497 -2.6988554 -0.31701106 13
2.2079804 -3.041256 -0.11482481 71
4.076787 3.7474847 -0.44067279 18
6.1655016 2.0474045 -0.55238301 24
6.9808321 -0.72139877 -0.5560267 19
4.651021 -2.6961026 -0.31185886 10
2.1881235 -3.0372586 -0.11044674 77
4.1601 3.7960312 -0.45410684 5
6.1405144 2.0105886 -0.55392867 25
6.9927478 -0.7510125 -0.5572114 20
4.6489649 -2.7199018 -0.30867779 3
2.1730745 -3.0420434 -0.10638441 74
nan nan nan 0
6.0812993 1.9665507 -0.55018061 25
6.9603205 -0.77334535 -0.55361968 21
4.755188 -2.8054936 -0.3135111 1
2.1590834 -3.0459993 -0.10233242 77
5.0165362 4.5121555 -0.55472368 14
6.1116691 1.9528333 -0.55456436 24
6.9725313 -0.79935086 -0.55357689 21
nan nan nan 0
2.1461442 -3.0491271 -0.098941579 75
4.8966069 4.3688531 -0.54643738 14
6.0663452 1.9138753 -0.55204868 23
6.974504 -0.82548696 -0.5539701 21
4.6324701 -2.7779696 -0.30199432 2
2.1310751 -3.0536883 -0.095559373 72
4.9160295 4.3539262 -0.55143696 14
6.030149 1.8781823 -0.55256736 24
6.9761343 -0.85285407 -0.55558985 20
nan nan nan 0
2.119915 -3.0615458 -0.092309736 72
4.9128823 4.3191113 -0.55505377 15
6.0323706 1.8534948 -0.55433446 25
7.0175672 -0.8840363 -0.55790174 21
nan nan nan 0
2.1007752 -3.0566468 -0.088054061 69
4.7518282 4.1467447 -0.54178989 16
5.9961333 1.8183357 -0.55149043 25
6.9846215 -0.90590435 -0.55554277 21
nan nan nan 0
2.0867925 -3.0602705 -0.084056564 74
4.4535251 3.8591251 -0.51038384 23
5.9645276 1.7837719 -0.55232972 24
7.0108314 -0.93669009 -0.55666721 24
nan nan nan 0
2.0756023 -3.0679579 -0.080824144 72
4.4119129 3.7921648 -0.51000488 21
5.9469566 1.7547967 -0.55228478 25
7.0123858 -0.96307123 -0.55582416 24
nan nan nan 0
2.0560319 -3.0631616 -0.07663364 69
4.4431314 3.7934513 -0.51626688 20
5.929255 1.7259748 -0.55222243 25
7.0385194 -0.99295783 -0.55693209 24
nan nan nan 0
2.0475981 -3.074892 -0.073513649 70
4.4839182 3.7986047 -0.52447635 14
5.9021449 1.6935277 -0.55124849 26
7.0344615 -1.0199484 -0.55941331 24
nan nan nan 0
2.0335934 -3.0782576 -0.070194654 73
4.482213 3.7690289 -0.52780914 6
5.8697009 1.6609579 -0.55086595 26
7.0554256 -1.0494053 -0.56012988 23
nan nan nan 0
2.0157881 -3.0781014 -0.065509215 65
4.5683484 3.8129632 -0.5404911 3
5.8470697 1.6303313 -0.55028671 28
7.0319171 -1.0722666 -0.55732268 24
nan nan nan 0
1.9963583 -3.0729477 -0.061404787 73
4.5895224 3.8021829 -0.54763716 14
5.8144097 1.5982803 -0.54878026 28
7.0672431 -1.105437 -0.55919862 26
nan nan nan 0
1.9829333 -3.075731 -0.058766197 81
4.5614848 3.7495129 -0.546727 20
5.8057151 1.5719386 -0.55162001 27
7.0533967 -1.129771 -0.5571726 24
nan nan nan 0
1.9662918 -3.0746047 -0.054783825 70
4.5554638 3.7166696 -0.55057913 23
5.8011818 1.5500821 -0.55175471 26
7.0390716 -1.1552153 -0.5576399 26
nan nan nan 0
1.9550394 -3.0818379 -0.050961956 74
4.5610185 3.69344 -0.5537442 24
5.763648 1.5152906 -0.55179781 27
7.0250545 -1.1793727 -0.55561733 26
4.2338891 -2.823653 -0.24533676 4
1.9384239 -3.0805488 -0.048281372 70
4.5283012 3.6382458 -0.55216354 24
5.7645106 1.4918771 -0.55237609 28
7.0158677 -1.2042859 -0.55398607 25
4.2277975 -2.8420331 -0.24202113 4
1.9218593 -3.0792041 -0.043080695 65
4.5061293 3.5933342 -0.55394101 25
5.7499442 1.46778 -0.5526002 29
6.986547 -1.2268882 -0.55328441 26
4.1678052 -2.8239386 -0.23741651 4
1.9053127 -3.0777502 -0.040434945 72
4.4954739 3.5579615 -0.55607408 25
5.7364459 1.4387671 -0.55384254 28
7.0458846 -1.2639464 -0.55708963 26
4.1823106 -2.8561888 -0.23529403 2
1.8940406 -3.0847476 -0.036644306 70
4.4579158 3.5004809 -0.55375612 26
5.7124949 1.4105257 -0.55309933 28
7.1197543 -1.3041506 -0.56203347 23
4.1677675 -2.8687131 -0.23329589 2
1.8754735 -3.0785568 -0.033346657 62
4.4310088 3.4531739 -0.55477744 26
5.6880803 1.3834496 -0.55335683 27
7.095191 -1.3278289 -0.55922532 25
3.9480534 -2.738862 -0.21819596 20
1.8641948 -3.0854385 -0.029571654 66
4.3921647 3.3971002 -0.552266 27
5.6735611 1.357913 -0.55351108 26
7.0951729 -1.3547601 -0.55961156 23
3.9667678 -2.7734356 -0.21640465 45
1.8466719 -3.084342 -0.025725061 62
4.3968215 3.3737996 -0.55708021 26
5.664103 1.3326758 -0.55310982 25
7.0655494 -1.3772433 -0.5564242 22
3.9607208 -2.7908766 -0.21493669 97
1.8364446 -3.0904672 -0.022587903 59
4.3573971 3.3182454 -0.55440307 26
5.6394782 1.3050866 -0.55431223 25
7.0896959 -1.4089419 -0.55999774 22
3.9383683 -2.7967842 -0.21089974 96
1.8189594 -3.0892129 -0.019396622 65
4.3254905 3.2689698 -0.55359572 26
5.5956326 1.2723236 -0.55255073 25
7.0894656 -1.4359263 -0.55912149 22
3.9114132 -2.8002968 -0.20834818 84
1.8051126 -3.0915568 -0.015620646 62
4.3205729 3.2416203 -0.55627805 26
5.590261 1.2495714 -0.55459166 26
7.0691581 -1.4600925 -0.55922532 21
3.8931091 -2.8088319 -0.2054019 82
1.7893043 -3.0891964 -0.012461625 57
4.2802548 3.1869185 -0.55334473 26
5.5851068 1.2259218 -0.55562401 25
7.0785847 -1.4891113 -0.557859 21
3.8667409 -2.8114145 -0.20120941 82
1.775485 -3.0914075 -0.0087109292 57
4.2594428 3.147222 -0.5547654 27
5.5406332 1.1948909 -0.55375612 26
7.0486116 -1.5098047 -0.55719489 21
3.8444338 -2.8167925 -0.19725145 90
1.7641456 -3.0978997 -0.0055998862 54
4.2309999 3.101162 -0.55413443 27
5.50595 1.1653048 -0.55281353 28
6.9209065 -1.510267 -0.54879779 23
3.8100247 -2.8131003 -0.19435771 97
1.7503232 -3.0999944 -0.0018640115 51
4.213799 3.0648761 -0.55500489 26
5.5003457 1.1430721 -0.55281651 28
6.9009099 -1.5324224 -0.54517168 25
3.7877183 -2.8181396 -0.1920947 97
1.7365071 -3.102026 0.001240929 57
4.1807156 3.0163364 -0.55457836 26
5.4555607 1.1119298 -0.55180711 29
6.9046073 -1.5610864 -0.54717612 25
3.7614551 -2.820076 -0.18882008 91
1.7208128 -3.0993237 0.0043310332 57
4.1548138 2.9745548 -0.55600852 27
5.4298544 1.0859774 -0.55368084 29
6.927989 -1.5930855 -0.54948813 23
3.7391868 -2.8248482 -0.1865823 87
1.7142614 -3.1143661 0.0074455687 53
4.1044345 2.9157917 -0.55316818 27
5.3846884 1.0554579 -0.55349481 29
6.9121146 -1.6161317 -0.55243427 23
3.7124393 -2.8270972 -0.18497221 95
1.6956483 -3.1074576 0.0092676878 51
4.0673413 2.8894405 -0.55522037 27
5.3252563 1.0438086 -0.55599791 28
6.8039246 -1.5920881 -0.55853575 24
3.7201796 -2.8329914 -0.19189748 91
1.6932564 -3.1030741 0.0061697355 50
4.0482144 2.8993058 -0.55324525 28
5.2819061 1.0563877 -0.55474138 28
6.7074327 -1.5436014 -0.55377352 26
3.7422764 -2.8282084 -0.1990623 89
1.7064909 -3.1015301 0.00061784656 50
4.0658464 2.9345391 -0.55623513 27
5.2631888 1.0727212 -0.5550797 29
6.7176971 -1.5188272 -0.56018502 24
3.7683756 -2.826292 -0.20648754 97
1.7251246 -3.1083677 -0.0043432503 55
4.0588803 2.9532807 -0.55328214 27
5.2591262 1.0929422 -0.55414218 29
6.6693249 -1.4822179 -0.56049603 23
3.7825999 -2.8153572 -0.20999847 89
1.7365026 -3.1020184 -0.0080660312 53
4.0682244 2.9829459 -0.55426031 26
5.2306609 1.1070414 -0.55250984 29
6.5867958 -1.4385625 -0.55666745 22
3.8047371 -2.8102224 -0.21644485 93
1.7503104 -3.099972 -0.013669385 48
4.0934749 3.0245917 -0.55651009 26
5.2409568 1.1302629 -0.55405176 30
6.5188088 -1.3975115 -0.55515051 22
3.8430564 -2.8168142 -0.22220294 92
1.763586 -3.0981746 -0.017421806 58
4.093946 3.0493107 -0.55635858 26
5.2075377 1.1430459 -0.55189848 29
6.4894719 -1.3663634 -0.55571854 22
3.8653133 -2.8114076 -0.22707276 74
1.7749176 -3.0916688 -0.021777209 54
4.1149349 3.0884576 -0.55620277 26
5.24194 1.1717124 -0.55601722 28
6.4648762 -1.3364582 -0.55667013 23
3.8915949 -2.8087721 -0.23304786 80
1.7923106 -3.0931418 -0.02682982 54
4.1032 3.1043518 -0.55440676 26
5.2328548 1.1898359 -0.55456573 30
6.4161525 -1.3007169 -0.5531913 23
3.9179027 -2.8059771 -0.23906453 90
1.8086654 -3.0951598 -0.030658953 63
4.1197782 3.140703 -0.55453992 26
5.2381272 1.2122061 -0.5537169 27
6.3911796 -1.2712846 -0.55521476 23
3.9402354 -2.8001795 -0.24318248 76
1.8194382 -3.088793 -0.035038672 58
4.1197448 3.1657634 -0.55341613 26
5.2238722 1.2290964 -0.5536291 28
6.3808403 -1.2449334 -0.55734539 23
3.9584236 -2.791326 -0.2487573 97
1.8332734 -3.0863569 -0.040099852 62
4.1438022 3.2084742 -0.55452383 26
5.2142773 1.2479877 -0.55311596 28
6.3463335 -1.2129239 -0.55505639 24
3.9316278 -2.7509105 -0.25063676 34
1.8496885 -3.0881577 -0.043981198 62
4.1607423 3.2437172 -0.55636507 25
5.2289991 1.2717923 -0.55516839 28
6.3308654 -1.1859329 -0.55671716 23
3.9742773 -2.7591097 -0.25778988 18
1.8609657 -3.0813091 -0.048379071 61
4.1759315 3.2814159 -0.55632812 26
5.2241712 1.2918841 -0.55422914 28
6.3005857 -1.156374 -0.55705738 24
4.1486816 -2.8577113 -0.27194837 2
1.8768773 -3.0832825 -0.052923467 67
4.1864929 3.3169837 -0.5547927 26
5.2292366 1.3134934 -0.55337161 26
6.2805672 -1.1266577 -0.55600518 25
4.1970673 -2.8662665 -0.2779223 2
1.8933706 -3.0848639 -0.056228753 70
4.2022514 3.3534124 -0.55653197 24
5.248251 1.3397135 -0.555924 24
6.2400227 -1.0969158 -0.55541629 25
4.1732502 -2.8297539 -0.28101856 2
1.8993657 -3.0693407 -0.060483295 63
4.2174439 3.3909118 -0.55541354 26
5.2433991 1.3589647 -0.55497861 25
6.229084 -1.0714717 -0.55631268 25
nan nan nan 0
1.9264452 -3.0877514 -0.064797156 70
4.2207479 3.4191141 -0.55366349 26
5.2431402 1.3804036 -0.55359572 25
6.2232327 -1.0458789 -0.55653733 24
4.2225728 -2.8182359 -0.290941 4
1.9377059 -3.0806005 -0.069243506 69
4.2464204 3.467 -0.55490661 25
5.2334256 1.3983771 -0.55119699 26
6.2021637 -1.018978 -0.55763209 23
nan nan nan 0
1.9537604 -3.0821996 -0.073255271 69
4.253119 3.4985266 -0.55454093 26
5.2519283 1.4249488 -0.55467749 25
6.1957321 -0.99461383 -0.56003404 23
nan nan nan 0
1.9660602 -3.0742426 -0.078350537 73
4.2865329 3.5524337 -0.55666566 25
5.2420607 1.4429196 -0.55227262 25
6.1207819 -0.95848882 -0.55292249 22
nan nan nan 0
1.9881035 -3.0837505 -0.082622133 68
4.3037825 3.5946932 -0.5557521 24
5.2560873 1.467526 -0.55238885 26
6.1241584 -0.93603402 -0.55400378 22
nan nan nan 0
1.9993361 -3.0763562 -0.087104693 69
4.3099108 3.6267114 -0.55428541 25
5.2551999 1.4890531 -0.55289245 25
6.0978665 -0.90806836 -0.55455989 21
nan nan nan 0
2.0160253 -3.0772915 -0.091194585 65
4.3309722 3.6716318 -0.55571944 24
5.2690177 1.5138526 -0.552993 25
6.0762258 -0.88209361 -0.55553508 22
nan nan nan 0
2.0321991 -3.0784831 -0.095949128 73
4.3398376 3.7078815 -0.55465686 22
5.2729039 1.5369112 -0.5520795 25
6.0300159 -0.85283029 -0.55209243 22
nan nan nan 0
2.043412 -3.0709288 -0.099811926 66
4.3265834 3.7240772 -0.54967535 18
5.2768688 1.5590734 -0.55211931 25
6.0528831 -0.83237082 -0.55496448 21
nan nan nan 0
2.0573785 -3.0674813 -0.10381509 66
4.3432779 3.7662475 -0.54949594 7
5.2946725 1.5864636 -0.55461532 26
6.0361447 -0.8053937 -0.55634391 22
nan nan nan 0
2.0752041 -3.0673692 -0.1086207 68
nan nan nan 0
5.2895679 1.6040686 -0.55268592 24
6.0092931 -0.78047091 -0.55361456 21
nan nan nan 0
2.0909386 -3.0686514 -0.11215439 70
4.2221231 3.7170668 -0.52876669 5
5.3067622 1.6335871 -0.55323511 24
6.0120173 -0.75842834 -0.55467212 21
nan nan nan 0
2.1031609 -3.060118 -0.11669096 73
4.2235756 3.7459128 -0.5276826 15
5.3298173 1.6600533 -0.55620944 24
5.994699 -0.73393244 -0.55601138 22
4.6221027 -2.7981422 -0.35887316 1
2.1189265 -3.06126 -0.12025411 70
4.1841707 3.7384529 -0.51952893 20
5.3283329 1.682062 -0.55475479 24
5.9825439 -0.70913953 -0.55568773 21
nan nan nan 0
2.132385 -3.0578389 -0.12431946 70
4.1589532 3.7447383 -0.51423907 17
5.3697109 1.7167916 -0.55772698 24
5.9653172 -0.68493581 -0.55385077 21
4.5953283 -2.7350192 -0.36362857 3
2.1474283 -3.0532153 -0.12904663 77
4.0938964 3.7134204 -0.50301081 10
5.35853 1.7359235 -0.55526853 25
5.962666 -0.66144472 -0.5565328 21
4.6738348 -2.7585957 -0.3728449 1
2.1585252 -3.0452118 -0.13295552 75
4.1038818 3.747359 -0.50185013 20
5.3807774 1.764948 -0.55524671 25
5.9601002 -0.63905525 -0.55607092 21
4.7181849 -2.7615049 -0.37844896 2
2.1783028 -3.0493627 -0.1374139 66
4.0854626 3.760725 -0.49655485 14
5.3837166 1.7877939 -0.5562225 24
5.9325929 -0.61412036 -0.55434078 21
4.6762209 -2.7139826 -0.37902373 16
2.1922843 -3.045275 -0.14218153 68
4.4888816 4.161118 -0.54411888 12
5.3817134 1.810101 -0.55472851 26
5.8999414 -0.58785242 -0.55420631 23
4.9063683 -2.8235662 -0.4008081 3
2.2062912 -3.041162 -0.14564967 67
4.6596727 4.3513007 -0.56002218 14
5.3799362 1.8314797 -0.55323088 24
5.9367452 -0.56955206 -0.55746359 23
nan nan nan 0
2.2202799 -3.0369632 -0.149783 63
4.6222782 4.3482056 -0.55185932 12
5.3965712 1.8602957 -0.55366057 25
5.894176 -0.5426361 -0.55430871 23
4.8270879 -2.7299228 -0.40042946 1
2.2372284 -3.0367212 -0.15413079 71
4.678906 4.4339123 -0.5560227 13
5.4133945 1.8883222 -0.5540728 24
5.8713307 -0.51883817 -0.55197775 24
4.8759632 -2.7340252 -0.40757313 2
2.2477012 -3.0287402 -0.15873887 65
4.7494574 4.5339246 -0.56060553 13
5.4110694 1.9108477 -0.5515492 25
5.9026656 -0.49981079 -0.55787665 24
4.9642148 -2.7596428 -0.41709149 2
2.2706697 -3.0363712 -0.16288863 63
4.7071609 4.5282202 -0.55306828 14
5.413404 1.9340165 -0.55250591 25
5.8698087 -0.47433582 -0.55459505 24
nan nan nan 0
2.2786732 -3.0239012 -0.16663916 60
4.6657624 4.5214381 -0.54557955 13
5.4673119 1.9759021 -0.55669534 24
5.8715076 -0.45281875 -0.55459505 24
4.9924808 -2.7276433 -0.42676073 1
2.3017168 -3.0313013 -0.17150439 63
4.8048143 4.6937356 -0.55695498 14
5.4693069 2.0003998 -0.5545994 25
5.8482394 -0.42638934 -0.5553214 24
nan nan nan 0
2.3137374 -3.021868 -0.17615433 61
4.8214769 4.7413611 -0.55595273 13
5.4807935 2.0274069 -0.5544557 24
5.8744502 -0.40872103 -0.5576784 23
nan nan nan 0
2.3308043 -3.0211535 -0.17994663 67
4.8177376 4.7742105 -0.55167282 13
5.4964595 2.057229 -0.5547685 24
5.8461742 -0.38420323 -0.55484992 23
nan nan nan 0
2.3509402 -3.0242689 -0.18466467 63
4.8993082 4.8907647 -0.5569815 14
5.5217438 2.0897977 -0.55497104 24
5.8573828 -0.3633838 -0.55681705 23
nan nan nan 0
2.3649678 -3.0194097 -0.18892191 63
4.9167676 4.9443045 -0.55612361 13
5.518877 2.1118701 -0.55337632 24
5.8238907 -0.33988291 -0.55351108 22
nan nan nan 0
2.3790092 -3.0145109 -0.19251916 67
4.9304676 4.9945612 -0.55357689 14
5.5533514 2.1473153 -0.55653292 24
5.8348999 -0.31804964 -0.55649549 24
nan nan nan 0
2.3961093 -3.0134017 -0.19772358 71
4.9892216 5.0912685 -0.55600607 14
5.5641713 2.1749754 -0.55630893 23
5.8211136 -0.29590347 -0.55507344 24
nan nan nan 0
2.4163949 -3.0161538 -0.20186561 87
5.0751481 5.2170668 -0.56131923 12
5.5838294 2.207413 -0.55594671 23
5.8320532 -0.27401251 -0.55704045 24
5.2248545 -2.6564555 -0.46747774 4
2.4241636 -3.0032258 -0.20564662 29
5.080574 5.2610879 -0.55762821 14
5.5712576 2.2260885 -0.55339152 24
5.8081546 -0.25155824 -0.55466604 24
5.2747107 -2.6563644 -0.47620937 3
2.4476409 -3.0096743 -0.21009618 26
5.110826 5.3295197 -0.55650616 13
5.618732 2.2689743 -0.55572975 24
5.8238044 -0.22983591 -0.5581252 23
5.2886467 -2.6391273 -0.47970605 1
2.5186327 -3.0738826 -0.21939529 14
5.1206536 5.3828568 -0.55340493 13
5.6147666 2.2924871 -0.5540694 24
5.8096852 -0.20795493 -0.55669534 25
5.3248615 -2.6328669 -0.48524329 9
2.6155677 -3.1684279 -0.23042256 12
5.1046438 5.4055634 -0.54728842 13
5.6149912 2.3189199 -0.55179846 25
5.7607579 -0.18204555 -0.55192912 25
5.3529849 -2.6200836 -0.49103248 16
2.6057563 -3.1308579 -0.23272845 13
5.2064281 5.5501032 -0.55349487 13
5.6163201 2.3424501 -0.54951686 24
5.7961564 -0.16392615 -0.55526549 23
5.3304834 -2.5860445 -0.49126071 27
2.6224046 -3.1296947 -0.23686215 12
5.2101693 5.5950484 -0.5493623 15
5.6124625 2.3650274 -0.54784065 26
5.7567196 -0.14169654 -0.55346262 25
5.3126712 -2.5533907 -0.49289694 28
2.6476424 -3.134171 -0.24303313 12
5.2659569 5.7006707 -0.54812342 13
5.6627469 2.4130301 -0.55044109 24
5.7623906 -0.11969872 -0.55192912 25
5.3353338 -2.5402532 -0.49620959 23
2.6427994 -3.1052785 -0.24511333 11
5.3214073 5.7991633 -0.55175221 14
5.6865773 2.4466741 -0.55031711 25
5.7476687 -0.098319016 -0.55250591 23
5.4078255 -2.5493422 -0.50624102 17
2.665931 -3.1114938 -0.24988912 12
5.4583101 5.9922986 -0.5611127 12
5.7051535 2.4794874 -0.55080217 25
5.7529798 -0.076314889 -0.55298424 23
5.4800887 -2.5589013 -0.51531398 15
2.7043242 -3.1307797 -0.25665653 11
5.4155178 5.9913692 -0.55199337 12
5.7099733 2.5065029 -0.54886013 25
5.7283368 -0.054989778 -0.55059242 24
5.516315 -2.5512323 -0.52104318 15
2.7451155 -3.1545565 -0.26309228 12
5.4638042 6.089509 -0.55201381 13
5.7506542 2.550741 -0.55038851 25
5.7334833 -0.033022854 -0.55107081 23
5.5299087 -2.5329573 -0.5246551 15
2.7202928 -3.1029916 -0.26396024 13
5.4949841 6.1696029 -0.54730588 14
5.7688036 2.5841362 -0.54969347 25
5.7582569 -0.012060083 -0.55547267 23
5.5710998 -2.5259905 -0.53086591 14
2.7238419 -3.086333 -0.26619577 12
5.5453529 6.2722912 -0.54727101 15
5.7785344 2.6115367 -0.54921269 25
5.7384539 0.0080123972 -0.55255073 23
5.6746874 -2.5503056 -0.54211593 14
2.7216573 -3.0611689 -0.26990968 13
5.5642214 6.3358498 -0.54676968 13
5.8002715 2.6482279 -0.5511198 25
5.7284312 0.028994443 -0.55159229 24
5.6517086 -2.5151207 -0.54447627 15
2.7859566 -3.1104555 -0.27881387 11
5.649601 6.4808245 -0.54694265 16
5.8226304 2.6842692 -0.54853886 25
5.7581477 0.050250594 -0.55446768 23
5.6063666 -2.4691966 -0.54242331 18
2.7915363 -3.0916233 -0.28250983 11
5.6750994 6.5584497 -0.54413587 15
5.8446298 2.7204294 -0.5481469 24
5.7529354 0.07229732 -0.5539884 24
5.6059875 -2.4445362 -0.54474354 20
2.7512784 -3.0267975 -0.28100443 11
5.7293696 6.6704197 -0.54397655 14
5.8614531 2.7556918 -0.54729736 24
5.7327266 0.093059279 -0.55207151 23
5.6151576 -2.4229174 -0.54687834 24
2.7868283 -3.0412893 -0.2870031 11
5.7959113 6.7981448 -0.54326606 15
5.9100871 2.8050516 -0.54934502 24
5.7173033 0.11476903 -0.55163187 22
5.6191564 -2.4002514 -0.54963243 25
2.8823617 -3.1224918 -0.2993876 12
5.8445401 6.9014063 -0.54362953 14
5.9547691 2.850492 -0.55321348 24
5.7466969 0.13643198 -0.5545125 23
5.650404 -2.3891487 -0.557226 27
2.906611 -3.1267915 -0.30526394 11
5.8107324 6.9176016 -0.53356916 14
5.9834046 2.8950679 -0.55349088 24
5.7113051 0.15753604 -0.55115175 23
5.6547627 -2.3654385 -0.55891335 26
2.8745897 -3.0675581 -0.30503047 11
5.8271885 6.9890461 -0.52946073 11
5.9774904 2.919292 -0.55042273 25
5.7356586 0.1792483 -0.55255073 23
5.6171188 -2.3255384 -0.55755633 25
2.8958993 -3.0676856 -0.30979756 9
5.7923355 6.9992428 -0.51907569 11
5.9804177 2.9479179 -0.5481686 25
5.7546301 0.20196171 -0.55647767 23
5.5977812 -2.2935348 -0.55692816 27
2.9000633 -3.0496268 -0.31273779 12
5.7408485 6.9840512 -0.50861949 11
6.0369267 3.0033257 -0.54843009 24
5.7392216 0.22248499 -0.55202752 23
5.5647473 -2.2550852 -0.55594671 27
2.966217 -3.0963862 -0.3224085 11
5.7131 7.0074492 -0.49915183 8
6.0523276 3.0400341 -0.5473159 24
5.74334 0.24372983 -0.55250591 22
5.5727038 -2.2345655 -0.55909044 25
2.9704254 -3.078115 -0.3253918 11
2.7825832 3.4386573 -0.24034119 40
6.0947447 3.0893657 -0.54857105 24
5.7422657 0.26577637 -0.55350924 22
5.5205183 -2.1901872 -0.55513692 25
2.9571636 -3.0419803 -0.32643944 11
2.7775514 3.4558117 -0.2370147 60
6.1546335 3.1481297 -0.55135345 24
5.7661066 0.28806266 -0.55590534 22
5.5564218 -2.1797755 -0.56105423 24
3.0169215 -3.0807786 -0.33557278 11
2.7557034 3.4544821 -0.23081534 66
6.1527219 3.1742969 -0.54852349 24
5.7402058 0.30886886 -0.55250591 23
5.5131431 -2.1395142 -0.55797124 26
3.0285218 -3.0689623 -0.33933556 7
2.7338486 3.452971 -0.22618963 60
6.1711273 3.215224 -0.54764444 25
5.7638793 0.33133385 -0.55489767 23
5.5117493 -2.1146586 -0.56012303 27
2.9983838 -3.0141242 -0.33908039 11
2.7058682 3.4434893 -0.22108568 52
6.1871629 3.2497108 -0.54633904 24
5.7527256 0.35285956 -0.55293506 22
5.4960108 -2.0855436 -0.55981356 26
3.0646198 -3.0603435 -0.34846431 12
2.6964414 3.4575024 -0.2167463 62
6.2460232 3.309891 -0.54763919 23
5.7564569 0.37427115 -0.55240577 23
5.4847951 -2.058322 -0.55996245 26
3.0897555 -3.0629091 -0.35386506 11
2.6960928 3.4833078 -0.21388991 68
6.2730842 3.355145 -0.54739022 23
5.7649083 0.39705557 -0.55335897 27
5.4877157 -2.0354135 -0.56255144 25
3.0769334 -3.0258057 -0.35479373 13
2.69257 3.5052238 -0.20998891 68
6.3004837 3.3995566 -0.54709417 24
5.7585459 0.41782913 -0.55187464 25
5.476264 -2.0083642 -0.56267411 23
3.1116784 -3.039742 -0.36145779 11
2.6858931 3.5231864 -0.20582427 67
6.3396592 3.453624 -0.54662603 23
5.7719607 0.44007492 -0.55229163 25
5.4788861 -1.9854923 -0.5662626 24
3.1384704 -3.0403273 -0.36692733 10
2.6851232 3.5490816 -0.20286885 69
6.353426 3.4913814 -0.54509532 24
5.7849197 0.4634113 -0.55574208 26
5.4249449 -1.9434797 -0.56299353 25
3.1529517 -3.0320342 -0.37116313 11
2.6782422 3.5670836 -0.1978747 66
6.3769569 3.5318954 -0.54427767 23
5.7983522 0.48588207 -0.55412537 26
5.3991952 -1.9119552 -0.55959022 24
3.1602046 -3.0167928 -0.37455317 10
2.6831601 3.6010468 -0.19528535 64
6.4202638 3.5881639 -0.54398274 24
5.8014984 0.50858563 -0.55358297 26
5.3875237 -1.8845729 -0.5596379 25
3.1963606 -3.0289948 -0.38061714 11
2.6760039 3.6190531 -0.19100654 61
6.4420681 3.6314001 -0.5430612 24
5.7846293 0.5284785 -0.55317736 26
5.3705111 -1.8565575 -0.56116551 26
3.2144539 -3.0238564 -0.38532966 13
2.6717045 3.6410792 -0.18691333 56
6.5156636 3.704421 -0.54646063 23
5.8123837 0.55352628 -0.55500239 25
5.3679032 -1.8326123 -0.56315267 24
3.2226777 -3.0072994 -0.38874152 7
2.6643178 3.6590545 -0.18337698 55
6.5542865 3.758234 -0.54554915 23
5.8004088 0.57384598 -0.55405617 26
5.3319688 -1.7985505 -0.56067103 24
3.2193346 -2.9811363 -0.39081356 11
2.6656485 3.6892223 -0.17882845 56
6.566782 3.7974484 -0.54109019 23
5.7934113 0.59460336 -0.55256653 26
5.3100185 -1.7694964 -0.55965048 24
3.3253102 -3.0567086 -0.40628901 11
2.6528621 3.6986551 -0.17406204 55
6.6300211 3.8680646 -0.54213494 23
5.8159299 0.61949033 -0.55390716 25
5.2882328 -1.7397052 -0.55860895 25
3.2957668 -3.0073395 -0.40525526 12
2.656776 3.7329247 -0.17041047 58
6.6719294 3.9253623 -0.54266125 23
5.8483515 0.64463079 -0.55618012 25
5.2801938 -1.715639 -0.55904937 27
3.3171029 -3.005656 -0.40973726 12
2.6502349 3.7499955 -0.16677494 61
6.7307487 3.9932492 -0.54314184 23
5.8113089 0.66314244 -0.55186546 26
5.2677937 -1.6892753 -0.55704564 28
3.3537955 -3.0165927 -0.41607693 9
2.6495965 3.7812059 -0.16284736 60
6.7591171 4.0436463 -0.54247957 23
5.8435407 0.68852627 -0.55412626 25
5.2403808 -1.6593273 -0.55737668 27
3.2950246 -2.939889 -0.41120499 11
2.6472418 3.8074636 -0.15788689 57
6.8129168 4.1098137 -0.54242194 23
5.8458924 0.71157199 -0.55356723 26
5.2275352 -1.6332017 -0.55727082 29
3.3912201 -3.0034647 -0.42582095 11
2.648874 3.8368955 -0.1546689 65
6.8399434 4.1620216 -0.54163045 23
5.8334613 0.73176622 -0.55160522 26
5.2191334 -1.6096042 -0.55670553 29
3.4505243 -3.033494 -0.43591359 13
2.6476541 3.8682489 -0.15058905 65
6.7058988 4.1142116 -0.52668911 10
5.8555217 0.75634295 -0.55291015 25
5.196444 -1.5807819 -0.55650753 28
3.4169075 -2.9807582 -0.4334119 10
2.6391606 3.8863242 -0.14599076 65
6.5553126 4.0549684 -0.51062053 16
5.8330259 0.77621955 -0.54899132 26
5.2115436 -1.5645295 -0.55942619 29
3.4011858 -2.9451604 -0.43400803 12
2.6347384 3.9076312 -0.14069888 62
6.5252676 4.0663633 -0.50258923 15
5.874629 0.80367953 -0.5521366 27
5.1936665 -1.5374482 -0.55686939 28
3.4607894 -2.974647 -0.44343534 9
2.6239293 3.9210584 -0.13673089 65
6.5387554 4.1113014 -0.49948007 19
5.8666654 0.8255502 -0.55063897 26
5.1847572 -1.5141647 -0.55722076 29
3.5097513 -2.9933755 -0.4522967 12
2.6234398 3.951586 -0.13248816 63
6.6601954 4.2185402 -0.50567734 22
5.8784771 0.8491962 -0.55099052 30
5.1806002 -1.4913861 -0.55995834 29
3.4445035 -2.9159873 -0.44568923 13
2.6227603 3.9821599 -0.12819295 69
7.0043306 4.4777341 -0.52739793 14
5.9098954 0.87585956 -0.55318081 28
5.1716785 -1.4683132 -0.55840862 30
3.4854624 -2.9287992 -0.45200413 23
2.6136987 4.0002422 -0.12262384 65
7.1057835 4.5793643 -0.52740949 19
5.887085 0.89559346 -0.54821897 25
5.1241593 -1.4345479 -0.55458385 29
3.4591732 -2.8820744 -0.45099354 23
2.618119 4.0392623 -0.11848106 57
7.1954355 4.6709852 -0.53070134 17
5.9331484 0.92486298 -0.55070668 22
5.1534123 -1.4214216 -0.55904144 28
3.4799654 -2.8799009 -0.45564216 21
2.6087692 4.0573421 -0.11367586 62
7.0240626 4.5964174 -0.5134182 8
5.9443989 0.9500103 -0.55102599 23
5.1345 -1.3959751 -0.55736995 29
3.4786575 -2.8574014 -0.45806548 23
2.6020074 4.079618 -0.10896216 56
6.8517389 4.5230389 -0.49639264 10
5.9360576 0.97100294 -0.54952043 22
5.1156168 -1.3697685 -0.55661404 29
3.4710639 -2.8268976 -0.45866007 31
2.601187 4.1099048 -0.10358269 57
6.8078966 4.5265818 -0.48857296 8
5.9915814 1.0026468 -0.55285871 23
5.1059914 -1.3471544 -0.55688947 29
3.5042958 -2.8326628 -0.46565014 70
2.5941365 4.1322026 -0.098792851 53
7.4176235 4.9712925 -0.52737856 10
6.0074143 1.0290245 -0.55360764 23
5.1014066 -1.3250145 -0.55676061 29
3.5376742 -2.8382685 -0.47190043 77
2.5948901 4.167244 -0.093402639 55
6.5766201 4.4426694 -0.46178964 37
5.9890776 1.048493 -0.5501284 22
5.1158633 -1.3087727 -0.55781114 29
3.5678067 -2.8399954 -0.47687536 68
2.5822759 4.1810608 -0.088351659 48
7.410542 5.0456586 -0.51536018 14
6.0096102 1.0758862 -0.55131561 24
5.1060081 -1.2853831 -0.55991143 28
3.5699942 -2.8204231 -0.48059997 61
2.5774267 4.2076263 -0.083544046 53
7.437717 5.1041598 -0.50907052 13
6.0206065 1.1006439 -0.54946017 24
5.1059532 -1.2654873 -0.55846459 29
3.5919137 -2.8164201 -0.48376903 40
2.5731609 4.2337704 -0.077829756 50
7.442986 5.1499248 -0.50444221 10
6.0607805 1.1309601 -0.55133176 23
5.1009235 -1.2434711 -0.55924159 27
3.5945187 -2.7962418 -0.48668942 34
2.5654092 4.2560859 -0.072861388 44
7.5103436 5.23734 -0.50389314 16
6.0611906 1.1551375 -0.552854 23
5.1149263 -1.227041 -0.56213695 27
3.6369333 -2.8058751 -0.494147 26
2.5641589 4.2860947 -0.067125961 49
7.7037888 5.4143133 -0.51160663 6
6.076849 1.1812198 -0.55031711 24
5.1051784 -1.2039908 -0.55962753 27
3.6741242 -2.8141642 -0.50031382 22
2.558671 4.3127213 -0.062143475 40
7.5375066 5.3388276 -0.49539274 5
6.0778785 1.20235 -0.54967856 24
5.1041102 -1.1858855 -0.5609262 26
3.7276642 -2.833555 -0.50949419 21
2.5555549 4.3436704 -0.057175759 48
7.6727362 5.4769516 -0.49569669 8
6.1222262 1.2355694 -0.55191708 25
5.10853 -1.1662565 -0.56184077 26
3.729804 -2.8136721 -0.51167428 20
2.5580521 4.3828478 -0.051372889 44
7.52318 5.4119282 -0.48082525 15
6.151742 1.2672476 -0.55061316 24
5.0838723 -1.1391754 -0.5604611 27
3.7810709 -2.8275733 -0.52041394 19
2.5495136 4.4052272 -0.045306399 49
5.3851962 3.9039645 -0.33810985 6
6.1130266 1.2826462 -0.54646653 24
5.1077261 -1.1239409 -0.56168741 27
3.8031619 -2.822418 -0.52453721 20
2.5408387 4.4275904 -0.040094163 43
5.3710408 3.9238143 -0.3334662 17
6.1910501 1.3238559 -0.55166483 24
5.0824656 -1.0988679 -0.56029904 27
3.8456893 -2.8311446 -0.53227443 19
2.534507 4.4542952 -0.033990037 40
5.324728 3.9199932 -0.32453948 3
6.1962657 1.3487388 -0.5481059 25
5.0818796 -1.078333 -0.55885673 27
3.8798883 -2.8344526 -0.53811365 20
2.5312467 4.4849148 -0.028762877 40
7.480432 5.5493846 -0.45064726 21
6.1962376 1.3725382 -0.54742885 24
5.0905695 -1.0606939 -0.56029904 26
3.8778777 -2.8112433 -0.53978819 20
2.5270147 4.516006 -0.022580123 39
7.5084195 5.6129284 -0.44373021 28
6.2593293 1.4117488 -0.5489651 24
5.0944123 -1.0411005 -0.56211418 26
3.9165721 -2.8164158 -0.54707575 19
2.5201607 4.5427494 -0.015413852 40
7.50805 5.6556668 -0.43670946 31
6.2739086 1.439222 -0.54617631 26
5.083859 -1.0195466 -0.55778712 27
3.9187021 -2.7962151 -0.54678917 20
2.5203671 4.5826354 -0.010040873 40
7.475636 5.6743164 -0.42782331 30
6.2978888 1.4690411 -0.54645532 23
5.1266642 -1.00767 -0.56297737 25
3.9453166 -2.7924061 -0.55242085 20
2.5187249 4.6177502 -0.0018360863 41
7.4651246 5.7054543 -0.4167999 30
6.3703084 1.5105736 -0.54976338 23
5.1205592 -0.98699117 -0.56190604 25
3.9797575 -2.7949455 -0.55752498 21
2.5163312 4.6133614 0.00091717055 42
7.4981618 5.728631 -0.41033816 30
6.4922638 1.5394926 -0.55090737 23
5.1701465 -0.99654913 -0.55991143 27
3.9807212 -2.794585 -0.552432 19
2.5163505 4.573442 -0.0027331854 40
7.4951682 5.6829591 -0.41067654 31
6.4840178 1.5100713 -0.54734921 23
5.1860967 -1.0212321 -0.55741388 27
3.9500759 -2.7957745 -0.54538763 19
2.5201685 4.5427637 -0.0081602829 40
7.5058765 5.6519771 -0.41352016 31
6.4800539 1.4829401 -0.54652983 23
5.2116737 -1.0470719 -0.55777681 27
3.9281287 -2.8019068 -0.53865534 19
2.5294728 4.5203991 -0.012657114 43
7.5184226 5.6183615 -0.41635671 30
6.4952612 1.4613881 -0.54618722 22
5.2616782 -1.0771966 -0.56070429 26
3.8975475 -2.8027353 -0.5316925 20
2.5312707 4.4849577 -0.017976854 40
7.5125294 5.5670996 -0.42296559 28
6.4763098 1.4310204 -0.54645836 23
5.2674308 -1.0994642 -0.55986434 26
3.8915727 -2.8201354 -0.52888781 19
2.5328422 4.449563 -0.022340143 40
5.3705435 3.9522769 -0.30396175 8
6.4812055 1.4095768 -0.54414308 23
5.2980976 -1.1242126 -0.56065065 26
3.8576441 -2.8171697 -0.51977056 19
2.5416548 4.4272227 -0.026729593 41
5.3364177 3.8970921 -0.30584276 15
6.5113287 1.3875893 -0.54734921 23
5.3033504 -1.1485628 -0.55883914 27
3.8020771 -2.8010848 -0.51052433 21
2.5470603 4.4009876 -0.031949788 51
5.4119272 3.9204619 -0.31164312 5
6.5066161 1.3616735 -0.54652983 23
5.3137717 -1.1712257 -0.55942619 26
3.8121712 -2.8301358 -0.50823957 19
2.5404723 4.3527274 -0.036944799 48
7.5308185 5.4134355 -0.43900213 29
6.5113759 1.3377779 -0.54885024 23
5.3288383 -1.1960201 -0.55956525 26
3.7264128 -2.7877128 -0.49487922 25
2.5487795 4.3304248 -0.04209685 47
7.5381594 5.3769169 -0.44475722 30
6.4823637 1.3058963 -0.54481614 23
5.3489513 -1.2211438 -0.55924064 26
3.6881659 -2.7812514 -0.48795342 35
2.5595148 4.3124285 -0.045514069 49
7.5290904 5.3289199 -0.44790778 29
6.4966965 1.284024 -0.54794896 23
5.3637948 -1.2462205 -0.55934656 28
3.6743927 -2.7920492 -0.48259577 49
2.5675747 4.2901044 -0.050613686 56
7.5360532 5.2924976 -0.45360941 29
6.4814777 1.2575239 -0.54745203 24
5.3986511 -1.2732027 -0.56048465 27
3.6599629 -2.8033173 -0.47885734 71
2.5636859 4.2515478 -0.055458426 53
7.5305557 5.2475286 -0.45854136 27
6.4907498 1.2346548 -0.55017155 23
5.40833 -1.2974268 -0.56102192 26
3.6459908 -2.8138781 -0.47512564 70
2.5695677 4.224535 -0.060413063 50
7.5619297 5.2283211 -0.46249893 15
6.4858565 1.2067666 -0.54934174 23
5.4082909 -1.3203994 -0.55763727 27
3.6281903 -2.821419 -0.46928665 85
2.5771582 4.2022462 -0.065392077 55
7.5519495 5.1806135 -0.46713406 14
6.4758306 1.179193 -0.54694819 23
5.4322472 -1.3483707 -0.55965048 27
3.6058416 -2.8263247 -0.46456465 79
2.5793591 4.1714511 -0.070196487 48
7.4343934 5.059999 -0.4650071 7
6.4894209 1.1594478 -0.54892683 22
5.4568844 -1.3737125 -0.56067103 27
3.5800955 -2.8273888 -0.45936227 75
2.5825779 4.1458583 -0.07332027 57
6.4181066 4.3339586 -0.40586531 13
6.4541726 1.1287551 -0.54789472 23
5.4806805 -1.4021025 -0.56167072 27
3.5467236 -2.8222022 -0.45161036 76
2.5938292 4.1269135 -0.079125389 56
7.500721 5.023191 -0.47784382 5
6.4980426 1.1083963 -0.55237842 23
5.5041847 -1.4316813 -0.56165689 26
3.5317297 -2.8334992 -0.44795367 75
2.588742 4.0886621 -0.082780413 55
7.6561084 5.0867057 -0.49137846 7
6.5065975 1.0876635 -0.55279595 23
5.5188427 -1.4550501 -0.56163019 25
3.4988377 -2.8272412 -0.44185981 65
2.6070647 4.0828304 -0.087938815 63
7.4952331 4.9403186 -0.48460174 5
6.4767661 1.0548084 -0.54872805 23
5.5177889 -1.4795194 -0.55912876 26
3.4916754 -2.8446977 -0.4376325 24
2.6084311 4.0521502 -0.092531666 63
7.5631475 4.945415 -0.49414483 2
6.4803042 1.0310174 -0.55216384 23
5.5363379 -1.506265 -0.56156403 26
3.4698617 -2.8481486 -0.4338313 24
2.6163697 4.0350204 -0.096536398 57
nan nan nan 0
6.478765 1.0087558 -0.55174458 23
5.5602074 -1.5336245 -0.56045973 25
3.5091043 -2.9029834 -0.43531492 21
2.6133244 3.9951003 -0.10166647 68
6.4441228 4.1465893 -0.42976746 3
6.5173206 0.98681569 -0.55582988 23
5.611701 -1.5720952 -0.56422836 26
3.4604363 -2.8841503 -0.4274126 25
2.610007 3.9612913 -0.10516755 64
6.6736889 4.2598004 -0.44819194 8
6.4812241 0.95937568 -0.55132532 23
5.6351891 -1.5999104 -0.56405222 24
3.503556 -2.9419172 -0.42923388 20
2.6161497 3.9391129 -0.10978705 61
6.8408213 4.331275 -0.46401796 10
6.4895048 0.93515193 -0.55517763 22
5.6197224 -1.6178001 -0.56309378 25
3.488605 -2.9522769 -0.42637393 13
2.6277232 3.925246 -0.11461762 72
7.5081725 4.7135205 -0.51426309 2
6.4833384 0.90771228 -0.55433387 23
5.6419353 -1.6498173 -0.56186551 26
3.5273528 -3.0073242 -0.42755806 11
2.632967 3.9035339 -0.11836275 68
6.6227245 4.1238866 -0.4553096 15
6.4862161 0.88619453 -0.55547649 23
5.6366205 -1.668573 -0.55981356 27
3.4712064 -2.9814949 -0.41885266 11
2.6331341 3.873085 -0.122639 63
6.6206036 4.0889678 -0.45821881 10
6.5388622 0.86782461 -0.56085515 22
5.6541967 -1.6974159 -0.56012303 28
3.4379373 -2.9748852 -0.41215077 12
2.6387873 3.8509672 -0.12550548 69
6.9331989 4.247005 -0.48446941 11
6.4781523 0.83331823 -0.55420828 23
5.6858053 -1.7318165 -0.55975187 27
3.3956985 -2.9633005 -0.40460655 12
2.6442871 3.8288217 -0.12997521 66
7.5669193 4.5971422 -0.53377426 14
6.4713211 0.80719268 -0.55450106 22
5.7080541 -1.7614807 -0.56152213 27
3.3701694 -2.962851 -0.3981193 8
2.6439342 3.7984612 -0.1349315 59
7.543417 4.5486846 -0.53567851 15
6.4590282 0.78391606 -0.55436581 22
5.7020574 -1.7814533 -0.55943692 27
3.360533 -2.9741938 -0.39498642 9
2.6434052 3.7681704 -0.13902314 61
7.5363755 4.5014997 -0.53998619 17
6.476871 0.75971144 -0.55677742 22
5.7377586 -1.8179201 -0.56153172 29
3.3228052 -2.9646752 -0.38803172 9
2.6513569 3.7501943 -0.14272925 65
7.4823322 4.4356213 -0.53962892 20
6.4744372 0.73652428 -0.5574894 22
5.7552681 -1.8455985 -0.56174427 29
3.3523445 -3.0142293 -0.38965896 12
2.6505115 3.7199984 -0.1459388 53
7.4610257 4.3826103 -0.54288357 21
6.4625812 0.70890921 -0.555076 22
5.7623892 -1.8734256 -0.5589025 27
3.267679 -2.9598341 -0.37720037 11
2.6523941 3.693917 -0.14926867 58
7.4295239 4.327559 -0.54094034 20
6.4554434 0.68305129 -0.55309236 22
5.8266096 -1.9179457 -0.56364995 28
3.2902217 -3.0022795 -0.37637216 10
2.6599634 3.6759455 -0.15369225 55
7.4190817 4.2851357 -0.5450381 22
6.437983 0.65735233 -0.55252397 21
5.8336525 -1.9451221 -0.56180274 29
3.2427537 -2.9808204 -0.36831859 8
2.6661727 3.6589174 -0.15730456 58
7.3817911 4.2293024 -0.54568344 23
6.4449897 0.63647974 -0.55407965 22
5.8226376 -1.9629285 -0.55920303 27
3.2899601 -3.0476034 -0.37185422 10
2.6718464 3.6359479 -0.16229635 57
7.3145633 4.1552501 -0.5440073 23
6.4423494 0.60898131 -0.55704176 21
5.8663797 -2.0050795 -0.56202376 27
3.1952071 -2.9816649 -0.35853755 10
2.6725459 3.6104202 -0.16549747 62
7.2859397 4.1037407 -0.54661876 28
6.4199252 0.58312923 -0.55264747 22
5.887598 -2.0364623 -0.56038314 29
3.1808534 -2.9901559 -0.35431916 12
2.6694686 3.581367 -0.16925472 72
7.2092052 4.0257864 -0.54409313 25
6.4218254 0.56070751 -0.55377257 21
5.8996167 -2.0625491 -0.56217498 30
3.2279518 -3.0567939 -0.35768721 10
2.6735041 3.5594788 -0.17179465 69
7.1581898 3.9629509 -0.54344594 23
6.3989196 0.535083 -0.55275351 21
5.9389701 -2.1019332 -0.5622564 31
3.1880994 -3.0412953 -0.35063434 10
2.6864033 3.5494859 -0.17723328 69
7.1161599 3.9040592 -0.54480487 23
6.4305358 0.51399994 -0.55645239 21
5.945385 -2.128756 -0.5624876 29
3.1478698 -3.0260899 -0.34365082 10
2.6914427 3.5266349 -0.18050805 73
7.1082578 3.8658969 -0.54736733 23
6.3979573 0.48443386 -0.55232471 23
5.9508295 -2.1588702 -0.55939919 28
3.1216345 -3.0250742 -0.33752975 9
2.6908305 3.501694 -0.18431963 69
7.034307 3.7923365 -0.54480249 23
6.4293404 0.46537265 -0.55489761 24
5.9484973 -2.1803732 -0.55762786 29
3.1535439 -3.0784891 -0.33832893 11
2.692507 3.4749141 -0.18808916 69
6.9819155 3.7311282 -0.54384637 23
6.4260898 0.43921363 -0.55559301 24
5.9632273 -2.2129667 -0.55759954 28
3.0820169 -3.0308049 -0.32805058 10
2.6959009 3.4530795 -0.19127101 67
6.9524131 3.6795597 -0.54591119 22
6.4326034 0.41485041 -0.55714768 24
6.0388975 -2.2674668 -0.56208175 25
3.0640054 -3.0352631 -0.32353026 13
2.7164938 3.4557693 -0.19576131 70
6.9119616 3.6273222 -0.54584438 23
6.4390531 0.39157331 -0.55757827 24
6.0912695 -2.3126397 -0.56545001 25
3.0424702 -3.0361047 -0.31865743 11
2.738338 3.4574008 -0.20027758 67
6.8851314 3.5811181 -0.54676896 23
6.385705 0.36372474 -0.55395848 24
6.1110234 -2.3458021 -0.56347412 24
2.9887905 -3.0055294 -0.31052256 12
2.760205 3.4588869 -0.20559223 64
6.8491907 3.5305905 -0.54693836 23
6.3820214 0.34005249 -0.55352706 24
6.1254654 -2.3783717 -0.56217772 22
3.0199468 -3.0592048 -0.31190541 10
2.7852685 3.4641752 -0.21039949 67
6.8218575 3.4849131 -0.54776335 24
6.4031668 0.3187685 -0.55413377 24
6.1270037 -2.40238 -0.56073296 21
2.9914505 -3.0526361 -0.30636653 12
2.8827081 3.5585775 -0.22077902 11
6.7681842 3.4247885 -0.54638588 25
6.4241972 0.29621542 -0.55585605 24
6.0767441 -2.4084072 -0.55349016 18
2.9421721 -3.0244453 -0.29875213 10
nan nan nan 0
6.7626023 3.3908889 -0.54891014 23
6.4000635 0.27159917 -0.55705738 24
6.0907545 -2.4410617 -0.55330908 16
2.9208527 -3.0246313 -0.29402351 10
nan nan nan 0
6.6988072 3.3282316 -0.5466755 24
6.4162726 0.24536681 -0.55611563 24
6.071939 -2.4618559 -0.54903823 14
2.9399545 -3.0689712 -0.29271221 9
5.7596865 6.9523768 -0.46051162 86
6.7016692 3.2990828 -0.55116153 23
6.3871617 0.22081237 -0.5546425 25
6.0630522 -2.4841669 -0.54675108 12
2.9117079 -3.061872 -0.28656989 8
5.900002 7.06885 -0.47932351 12
6.6692071 3.251349 -0.55136716 23
6.4178357 0.1972038 -0.55723625 25
5.9846792 -2.4789352 -0.53712273 12
2.8937874 -3.0654483 -0.28221452 10
5.8419962 6.9474311 -0.48207104 8
6.6360073 3.2051139 -0.5502342 23
6.3934612 0.17523536 -0.55619109 24
5.994988 -2.5065284 -0.53650731 11
2.9162376 -3.1130908 -0.28257644 9
5.8606915 6.9180298 -0.48945317 7
6.6114678 3.163429 -0.55109364 23
6.3941131 0.14956902 -0.55619109 24
5.9484167 -2.5151567 -0.52983433 13
2.8540103 -3.0691316 -0.27396166 11
5.9958663 7.0252213 -0.50828916 11
6.5557194 3.1058764 -0.54926854 23
6.3846354 0.12705028 -0.55532473 24
5.8711061 -2.5066617 -0.52035952 12
2.8632419 -3.1017792 -0.27149817 11
6.0277925 7.0104299 -0.51690716 10
6.5126386 3.0562887 -0.54850543 24
6.3799806 0.10356615 -0.55600518 23
5.8254375 -2.5124464 -0.51489526 13
2.8115592 -3.0682783 -0.26401553 12
6.0878749 7.0305138 -0.52809328 12
6.4908357 3.0198333 -0.54959315 22
6.420372 0.079564281 -0.55723625 24
5.7109127 -2.4891036 -0.5023306 18
2.8273113 -3.108264 -0.2628814 11
6.1223078 7.0131893 -0.53678453 13
6.4437757 2.9665313 -0.54833215 23
6.3708286 0.053373378 -0.55291331 24
5.6419806 -2.4860575 -0.49172619 23
2.7815614 -3.0827386 -0.2554113 12
6.1286817 6.9736772 -0.54506797 11
6.3993177 2.9190352 -0.54861861 23
6.4205875 0.032497793 -0.55947751 25
5.5881619 -2.4845049 -0.48775101 29
2.7547572 -3.073463 -0.25171533 11
6.0985398 6.8931451 -0.54841113 14
6.4233394 2.9015987 -0.55347562 22
6.4057221 0.0078260694 -0.55817538 25
5.5519686 -2.4928246 -0.4821794 35
2.7403591 -3.0800378 -0.24637441 11
5.9706893 6.6989999 -0.54256171 14
6.3554978 2.8456142 -0.54803675 23
6.4008288 -0.013405885 -0.55662423 23
5.5389218 -2.5102353 -0.47860044 38
2.7192802 -3.0789971 -0.24189486 12
5.9848804 6.665576 -0.54947406 14
6.3387723 2.8089573 -0.54931331 22
6.4206548 -0.038101379 -0.55835688 23
5.5163884 -2.5244353 -0.47318843 62
2.7026095 -3.0806508 -0.23773086 11
5.9252572 6.5507131 -0.54952967 15
6.3168998 2.77161 -0.54895693 23
6.3856053 -0.061299291 -0.55532473 23
5.4801712 -2.5321944 -0.46769467 67
2.7067416 -3.1104589 -0.23558052 12
5.8783216 6.4511375 -0.55062634 15
6.2900043 2.7323613 -0.55176854 22
6.3654146 -0.084439009 -0.55359203 23
5.4388609 -2.5384941 -0.46394372 50
2.718272 -3.1469269 -0.23467392 13
5.8003716 6.3189154 -0.54866713 13
6.2406616 2.6824899 -0.55011243 23
6.3849654 -0.10922055 -0.55532473 23
5.3756223 -2.5330145 -0.45620826 19
2.6776581 -3.1229739 -0.22711271 12
5.7350898 6.2020125 -0.54774034 15
6.2227597 2.6478159 -0.55005145 23
6.414403 -0.13324258 -0.55792373 23
5.3486505 -2.5443034 -0.44950876 20
2.6566138 -3.1215105 -0.22270894 14
5.7199144 6.1402998 -0.5544343 15
6.2275639 2.6229441 -0.55318427 22
6.383966 -0.15713565 -0.55532473 22
5.3479004 -2.5691736 -0.44922999 27
2.6543722 -3.14325 -0.2206506 11
5.6431131 6.0135098 -0.55063236 15
6.1591244 2.566319 -0.54974288 24
6.4032636 -0.18109629 -0.55705738 22
5.3745489 -2.6062639 -0.44912255 15
2.6012592 -3.1033585 -0.21363579 12
5.5732841 5.8935823 -0.54871726 13
6.145278 2.5341558 -0.55001044 23
6.3726492 -0.20472202 -0.55445832 23
5.3250031 -2.6063876 -0.44057494 8
2.5772579 -3.0977159 -0.20765913 12
5.5601087 5.8366485 -0.5523774 14
6.1450305 2.5077405 -0.552661 22
6.4216366 -0.22985944 -0.55879009 22
5.4095044 -2.6723688 -0.44519722 3
2.6136968 -3.165036 -0.20793699 13
5.4567957 5.6863189 -0.54694968 13
6.1174717 2.4691355 -0.55164456 23
6.3907986 -0.25444663 -0.55619109 22
nan nan nan 0
2.459758 -3.0009601 -0.19249031 23
5.4216671 5.6084204 -0.55094153 14
6.1075234 2.4391263 -0.55571729 23
6.4197307 -0.27804637 -0.55879009 23
nan nan nan 0
2.4362202 -2.9945631 -0.18880436 28
5.3897247 5.5346389 -0.55105108 13
6.0475717 2.3870804 -0.55167186 24
6.4135871 -0.30357897 -0.55835688 23
nan nan nan 0
2.408601 -2.9850121 -0.184236 37
5.3397884 5.4433017 -0.55059052 15
6.0555978 2.3658504 -0.555076 24
6.4324846 -0.32698119 -0.55896544 24
nan nan nan 0
2.4201653 -3.02086 -0.18118635 82
5.3364468 5.4039311 -0.55505782 14
6.0315194 2.3309987 -0.5543558 23
6.3715568 -0.34730181 -0.55377787 24
nan nan nan 0
2.3910286 -3.0059347 -0.17710221 66
5.2496181 5.2716537 -0.55025238 13
6.0258822 2.3034711 -0.55532646 23
6.3602948 -0.37007371 -0.55291331 25
nan nan nan 0
2.3759625 -3.0117309 -0.17285483 66
5.247375 5.2309155 -0.55450565 15
5.9784923 2.2590837 -0.55352706 24
6.403573 -0.39726865 -0.556804 24
nan nan nan 0
2.3619206 -3.0166037 -0.1692864 73
5.1898823 5.1394038 -0.55431843 15
5.9445562 2.221396 -0.55185932 24
6.382288 -0.41943595 -0.55395848 24
nan nan nan 0
2.348418 -3.0210245 -0.16505876 73
5.1870761 5.0991049 -0.55712628 10
5.9294076 2.1898255 -0.55300319 24
6.4303236 -0.44739652 -0.55827278 23
nan nan nan 0
2.3282621 -3.0178583 -0.16108613 61
5.0805087 4.9578605 -0.54995644 12
5.9270082 2.1666315 -0.55543596 24
6.4137368 -0.46986994 -0.55697846 24
nan nan nan 0
2.3172867 -3.026504 -0.15709452 71
5.0425811 4.8814836 -0.55235201 13
5.921329 2.1376486 -0.55741709 24
6.4317627 -0.49715564 -0.55757827 25
nan nan nan 0
2.3032382 -3.0311072 -0.15356655 72
4.9263597 4.7357764 -0.5426079 14
5.9058557 2.1064656 -0.55740088 24
6.4250226 -0.51920235 -0.55714768 24
4.9161544 -2.7071497 -0.37866801 2
2.2801759 -3.023699 -0.1487947 59
4.9469452 4.7208004 -0.54897112 14
5.866384 2.068182 -0.55514485 25
6.4379678 -0.54400605 -0.55843937 25
nan nan nan 0
2.2661617 -3.0281389 -0.14529786 72
4.9763637 4.7108512 -0.55615163 12
5.8360281 2.0334623 -0.55482513 25
6.4110188 -0.56765705 -0.55516332 24
4.8864384 -2.74102 -0.37115008 4
2.248122 -3.0293071 -0.14096363 75
4.9299588 4.6360207 -0.5540002 13
5.810648 1.9996322 -0.55384064 24
6.4189191 -0.5909456 -0.5560227 24
4.7732525 -2.6983769 -0.36034715 3
2.2322073 -3.0287986 -0.13730688 62
4.8408594 4.5189152 -0.54910475 11
5.7939982 1.9701815 -0.5558691 24
6.4267244 -0.61542708 -0.55575532 23
4.720149 -2.6912339 -0.3542234 1
2.2201283 -3.0378683 -0.13271002 76
nan nan nan 0
5.7635736 1.9351784 -0.55437303 26
6.414207 -0.63909233 -0.55714768 23
4.7710242 -2.7434607 -0.35493511 13
2.2090328 -3.0460589 -0.13008316 75
4.0818338 3.7534385 -0.46857074 17
5.7225204 1.9003019 -0.55193752 25
6.4267831 -0.66414338 -0.55731177 23
4.7222481 -2.7384927 -0.34918079 10
2.1902242 -3.0412939 -0.12629431 65
4.1099162 3.751554 -0.4760823 6
5.7292638 1.8792549 -0.55404228 26
6.4241853 -0.68881553 -0.55731177 24
nan nan nan 0
2.1751695 -3.0461004 -0.12220632 74
4.189775 3.796392 -0.48868829 5
5.7078319 1.847981 -0.55339152 26
6.4365683 -0.71401519 -0.55747056 24
4.6717391 -2.7562599 -0.34221318 2
2.1582847 -3.0459995 -0.11797074 75
4.7515163 4.2737818 -0.55687326 14
5.6715193 1.8132851 -0.55341536 27
6.4191566 -0.73591042 -0.55505639 24
4.6660986 -2.7760367 -0.33873761 2
2.1443017 -3.0499008 -0.11390865 72
4.4279299 3.9548564 -0.52359313 20
5.6545167 1.7839472 -0.55317146 27
6.426178 -0.76172554 -0.55591238 24
4.5832934 -2.7495673 -0.33064637 1
2.1302943 -3.0537052 -0.1111566 75
4.3116894 3.8227172 -0.51224208 21
5.6463885 1.7586541 -0.55590695 27
6.4281912 -0.78586626 -0.55747056 25
4.5861921 -2.7742155 -0.32783064 1
2.1134636 -3.0533676 -0.10696953 75
4.2916884 3.7769811 -0.51324672 21
5.6291218 1.7295933 -0.55562288 27
6.430357 -0.81120282 -0.55450583 24
4.503273 -2.7477305 -0.31895867 1
2.1000245 -3.0566971 -0.102942 66
4.286345 3.7444901 -0.51697183 19
5.6018929 1.6987817 -0.55437851 27
6.446909 -0.83730727 -0.55848002 25
4.4974704 -2.7668622 -0.31833887 2
2.0888567 -3.0644467 -0.099705622 77
4.3807526 3.7947268 -0.53051633 10
5.5745153 1.6681935 -0.55310982 28
6.4389558 -0.86028397 -0.55691832 26
nan nan nan 0
2.0748684 -3.0680268 -0.095692739 75
4.3791785 3.765358 -0.53373343 4
5.547277 1.6368614 -0.55181676 27
6.4505072 -0.88705063 -0.55706316 25
nan nan nan 0
2.0570235 -3.0681095 -0.091566302 65
4.4329267 3.786077 -0.54388225 5
5.5339384 1.6109003 -0.55192912 27
6.4867721 -0.91627485 -0.55932951 25
nan nan nan 0
2.04689 -3.0749917 -0.08769805 75
4.4660559 3.7848115 -0.5513134 14
5.5158849 1.5826964 -0.55255073 27
6.4586511 -0.93761081 -0.55606371 25
nan nan nan 0
2.0328846 -3.0783525 -0.085003972 70
4.418582 3.7168391 -0.54885149 22
5.5262513 1.5637716 -0.55503476 26
6.474978 -0.96422619 -0.55661905 23
nan nan nan 0
2.0096145 -3.0698433 -0.080060624 66
4.4127035 3.6843612 -0.55150259 24
5.4934916 1.5317435 -0.55516869 26
6.4712076 -0.98792225 -0.55890411 23
nan nan nan 0
1.9940127 -3.0681651 -0.076649256 74
4.4104776 3.6551521 -0.55459166 25
5.5085721 1.5142108 -0.55713463 27
6.4526973 -1.0104654 -0.55648816 23
nan nan nan 0
1.9822595 -3.0758646 -0.072817311 69
4.3664494 3.590472 -0.55229759 25
5.4946847 1.4887544 -0.55718058 26
6.4736423 -1.0380684 -0.55746627 22
nan nan nan 0
1.9683201 -3.0789602 -0.068891048 64
4.3714948 3.5678458 -0.55624962 26
5.4615221 1.4572822 -0.55723059 26
6.5043039 -1.067452 -0.55928111 22
nan nan nan 0
1.9543761 -3.0819812 -0.065612115 73
4.3571005 3.5295694 -0.55770946 25
5.4378591 1.4296391 -0.55526888 25
6.4855137 -1.089958 -0.5568651 22
4.2321506 -2.823561 -0.2746436 4
1.9324553 -3.072253 -0.061451852 77
