# .PCD v0.7 - Point Cloud Data file format
VERSION 0.7
FIELDS x y z intensity
SIZE 4 4 4 4
TYPE F F F F
COUNT 1 1 1 1
WIDTH 1427
HEIGHT 1
VIEWPOINT 0 0 0 1 0 0 0
POINTS 1427
DATA ascii
3.1063378 2.0141976 -0.56453335 19
2.8361361 0.43297669 -0.56963778 33
2.6805913 -0.76814085 -0.564282 34
2.5458372 -2.1636143 -0.57409483 29
3.3912225 5.2460456 -0.53992522 22
3.1162531 2.036113 -0.56429994 20
2.8443193 0.44489992 -0.57108277 31
2.6880474 -0.7591207 -0.56624871 33
2.5117216 -2.1195652 -0.5665015 30
3.3912003 5.2884259 -0.53416789 21
3.1256959 2.0586691 -0.5640316 21
2.8524725 0.45740274 -0.57202011 32
2.6813104 -0.7461136 -0.56523341 33
2.4851024 -2.0815556 -0.56168669 30
3.362417 5.2840405 -0.52372903 22
3.0937397 2.0539193 -0.55696875 22
2.8556342 0.46916342 -0.57248628 33
2.6936069 -0.7384035 -0.56722367 34
2.4857674 -2.0644567 -0.56336349 29
3.3540058 5.3137217 -0.51771903 22
3.1067805 2.0798085 -0.55741459 23
2.8394964 0.47771642 -0.56857026 31
2.6771197 -0.72284359 -0.56517923 32
2.4853365 -2.0487533 -0.56445694 29
3.3251414 5.3089595 -0.50951707 21
3.1119192 2.0998061 -0.55569547 22
2.8426709 0.48948184 -0.56853193 32
2.6798754 -0.71255887 -0.56517923 33
2.4928026 -2.0388825 -0.56726748 29
3.3165071 5.3385701 -0.50346041 21
3.128401 2.1292534 -0.55678618 24
2.8505311 0.50211257 -0.56996059 33
2.6678708 -0.69890755 -0.56410903 32
2.4731164 -2.0076978 -0.56397581 30
3.3103576 5.3725014 -0.49664605 21
3.1299639 2.1455388 -0.5542683 24
2.8632631 0.51569825 -0.57184321 32
2.6705346 -0.68865848 -0.56410903 33
2.480577 -1.9980016 -0.56564367 31
3.294543 5.388864 -0.48821986 22
3.1346092 2.1656535 -0.5537765 24
2.8664734 0.52713066 -0.57128155 31
2.6634724 -0.67594099 -0.56306434 33
2.4682734 -1.9732198 -0.56403029 30
3.2802894 5.4100065 -0.48015708 21
3.1550901 2.1977484 -0.55545563 25
2.8501563 0.53545201 -0.567384 33
2.6753614 -0.66803455 -0.56603432 35
2.460022 -1.9511877 -0.56325632 31
3.2558198 5.4078984 -0.47241196 21
3.1675837 2.2237382 -0.55632818 25
2.8673556 0.5500899 -0.57122421 32
2.6682026 -0.65537339 -0.56498265 33
2.4590366 -1.9357661 -0.56422186 30
3.2497485 5.4471793 -0.46579489 21
3.1720872 2.2443008 -0.55371553 26
2.8752453 0.5630585 -0.57109892 32
2.675364 -0.64625019 -0.56647009 33
2.4657264 -1.9264363 -0.56695271 31
3.2513635 5.4933782 -0.4598119 18
3.1560924 2.2503879 -0.54959881 26
2.8635345 0.57219064 -0.56867611 33
2.6681039 -0.63366395 -0.56541151 34
2.4454978 -1.8955556 -0.56341302 30
3.2864189 5.594851 -0.46056101 15
3.1724916 2.2796664 -0.54903781 25
2.8663199 0.5842014 -0.56861079 32
2.6705174 -0.62341452 -0.56541151 33
2.4603224 -1.8919684 -0.56682962 30
3.4344172 5.896184 -0.47475243 15
3.172045 2.2978654 -0.54769522 26
2.8691597 0.59574127 -0.56854194 33
2.672699 -0.61311173 -0.5663687 33
2.4433894 -1.8647358 -0.56412232 30
3.8658683 6.690485 -0.52677846 5
3.1879864 2.3272774 -0.54840541 27
2.8718474 0.60781115 -0.56846964 34
2.6796169 -0.60387772 -0.56833893 34
2.4507852 -1.8541869 -0.56680435 30
nan nan nan 0
3.1878755 2.3451555 -0.54563755 27
2.8696866 0.6188755 -0.56744498 32
2.6674778 -0.59038877 -0.56577653 33
2.4493053 -1.8389906 -0.56766367 30
nan nan nan 0
3.1917305 2.3660698 -0.54283255 27
2.8964474 0.63629532 -0.57106823 31
2.6697252 -0.58014208 -0.56577653 32
2.448225 -1.8235216 -0.56743979 30
nan nan nan 0
3.2469251 2.4254768 -0.5501256 28
2.8750107 0.64316791 -0.56625801 32
2.6718364 -0.56986624 -0.56625336 33
2.430778 -1.7967122 -0.56459528 30
nan nan nan 0
3.250349 2.4466465 -0.54788321 27
2.8969607 0.65923679 -0.56890273 31
2.6548364 -0.5555914 -0.56219423 33
2.4453468 -1.7930026 -0.56801915 30
nan nan nan 0
3.2655828 2.4769158 -0.54688013 29
2.90417 0.67261636 -0.56974286 31
2.6663489 -0.54732281 -0.56517392 33
2.4479182 -1.7804755 -0.56921184 30
nan nan nan 0
3.2918649 2.5168204 -0.54921573 29
2.9019527 0.68385369 -0.56766158 32
2.6589284 -0.53516817 -0.56266761 33
2.442153 -1.7626324 -0.56854248 31
nan nan nan 0
3.3070796 2.5467939 -0.54878676 29
2.8996191 0.69453138 -0.56662083 30
2.6705699 -0.52684987 -0.56469887 32
2.4286878 -1.7387697 -0.56546921 31
nan nan nan 0
3.3266461 2.5794814 -0.547472 29
2.9213736 0.71161389 -0.56813979 31
2.6678629 -0.51568127 -0.56320894 33
2.4351046 -1.7292597 -0.56703305 30
nan nan nan 0
3.3348601 2.5858505 -0.54507929 30
2.9314988 0.71408033 -0.56683719 33
2.6971915 -0.52135032 -0.56690061 34
2.4515302 -1.7409241 -0.56813979 31
nan nan nan 0
3.3406076 2.5698287 -0.5466457 30
2.944119 0.70410365 -0.56815523 32
2.6907601 -0.53180879 -0.5630182 33
2.4576843 -1.7588805 -0.56723291 31
nan nan nan 0
3.3488832 2.5585625 -0.54885244 29
2.9611521 0.69616795 -0.57092226 33
2.7081938 -0.54606766 -0.56559324 33
2.4676476 -1.7797235 -0.56773645 31
nan nan nan 0
3.3312354 2.5239663 -0.54652077 28
2.9542274 0.68258029 -0.56907761 31
2.7063668 -0.55652189 -0.56414658 33
2.4612753 -1.7895341 -0.56455004 30
nan nan nan 0
3.3207834 2.4960346 -0.54617971 30
2.9472423 0.66905606 -0.56723291 32
2.7237761 -0.5710113 -0.56620491 34
2.4749272 -1.8133636 -0.56643301 32
nan nan nan 0
3.3247633 2.4818149 -0.54842454 29
2.9543555 0.65983528 -0.56815523 33
2.7411332 -0.58414608 -0.5697031 33
2.4802895 -1.8319702 -0.56592751 30
nan nan nan 0
3.3095555 2.4516249 -0.5480876 28
2.9616997 0.64846295 -0.57013589 32
2.7342618 -0.59466588 -0.56675375 33
2.4852238 -1.8510796 -0.56539047 30
nan nan nan 0
3.2862656 2.4157686 -0.54565877 30
2.9593635 0.6360535 -0.56921184 32
2.7320549 -0.60518169 -0.5662654 35
2.5060303 -1.8815808 -0.56893808 30
4.1162429 7.1180606 -0.53605157 3
3.2720177 2.3842473 -0.54450727 30
2.9471662 0.62160254 -0.56749111 32
2.7396586 -0.61791116 -0.56628823 33
2.5034356 -1.8940206 -0.567092 31
3.9673641 6.8056803 -0.5232324 4
3.2755835 2.3702557 -0.54666358 28
2.9542363 0.61179292 -0.56841689 31
2.7423317 -0.6295892 -0.56580341 33
2.5086892 -1.9124932 -0.56645548 30
4.0071702 6.8164201 -0.53350115 9
3.2799911 2.3551769 -0.54810804 27
2.9516358 0.60051709 -0.5669654 31
2.7403095 -0.63920271 -0.56482118 33
2.5291171 -1.9434665 -0.56930161 31
4.031743 6.8010397 -0.54454088 2
3.2684436 2.3279171 -0.54824734 27
2.9683874 0.59098756 -0.57079667 32
2.7523012 -0.65416789 -0.56579834 33
2.5145838 -1.9469987 -0.56476939 30
3.3566623 5.6174703 -0.45874459 14
3.2645051 2.3071239 -0.54900771 26
2.9463215 0.5759095 -0.56616354 31
2.7596292 -0.66609526 -0.56726408 33
2.5346475 -1.9781473 -0.56808358 29
3.3048685 5.485034 -0.45677829 17
3.2490094 2.2766714 -0.54838818 28
2.962991 0.56629276 -0.56999648 32
2.7760534 -0.68237787 -0.57018518 34
2.5355113 -1.9938177 -0.56700891 30
3.3039849 5.4383759 -0.46059623 20
3.2359002 2.251523 -0.54771733 27
2.9555829 0.55312228 -0.56761503 32
2.7739196 -0.69264442 -0.56818926 34
2.5360205 -2.010025 -0.56535184 30
3.3148825 5.4136372 -0.4661611 21
3.227982 2.2276671 -0.54701859 27
2.9478245 0.53996342 -0.5668062 31
2.7716236 -0.7033878 -0.5661931 34
2.5406463 -2.0288973 -0.56452888 29
3.3116159 5.3682475 -0.46983707 21
3.2317238 2.2128074 -0.54906243 27
2.9545269 0.53053868 -0.56773537 32
2.7787468 -0.71552908 -0.5676347 34
2.5566082 -2.0570354 -0.56679761 30
3.3282859 5.3512778 -0.4782652 21
3.2271287 2.1923311 -0.55038476 27
2.9515157 0.51883852 -0.56732929 31
2.7761705 -0.72624356 -0.56663305 34
2.591176 -2.1012897 -0.57324809 29
3.3299966 5.3084693 -0.48217905 21
3.218781 2.168644 -0.55030072 26
2.9585049 0.50730097 -0.5682593 30
2.7687447 -0.73670602 -0.56366432 33
2.6061549 -2.1308351 -0.57421613 28
3.3685679 5.3306069 -0.49295211 21
3.2139621 2.1483121 -0.55156881 26
2.9554882 0.49510938 -0.56785232 32
2.7848399 -0.75245041 -0.56752503 34
2.6019895 -2.1441519 -0.5732916 28
3.36813 5.2828345 -0.49858299 21
3.2096498 2.1276448 -0.5507943 26
2.9620194 0.48451847 -0.56983089 32
2.7823114 -0.76324242 -0.56551099 34
2.6022367 -2.1604185 -0.57083619 29
3.3827004 5.2670746 -0.50364918 22
3.2046189 2.1074438 -0.55201769 26
2.9637907 0.47419181 -0.56930703 31
2.7990577 -0.77782595 -0.56733 33
2.6098878 -2.1829789 -0.57060194 28
3.398021 5.2505307 -0.51088953 22
3.1954198 2.0846577 -0.55183226 26
2.9605401 0.46202016 -0.56942129 32
2.7867939 -0.78595722 -0.5644027 35
2.6093323 -2.1995978 -0.56987345 28
3.411453 5.2291675 -0.51770371 22
3.190613 2.0641003 -0.55233812 26
2.9623904 0.45066407 -0.56889832 32
2.7886631 -0.79805636 -0.56434679 34
2.6092257 -2.2159178 -0.56793606 28
3.4247708 5.2077708 -0.52449274 21
3.2060776 2.0574751 -0.55710113 25
2.9492493 0.43761131 -0.56714118 31
2.7859561 -0.80886781 -0.56232166 32
2.6202044 -2.2418234 -0.56901872 28
3.4343672 5.1828647 -0.52974617 22
3.1965761 2.0348752 -0.55685264 25
2.9556713 0.42697194 -0.56859678 32
2.7971451 -0.82377505 -0.56415826 34
2.6120269 -2.2522554 -0.56540728 29
3.4640458 5.1862702 -0.53906411 22
3.1914878 2.0144575 -0.55730671 23
2.9672608 0.41596511 -0.5699442 32
2.8080633 -0.83978891 -0.56547296 33
2.6525574 -2.3042078 -0.57285678 29
3.4576786 5.1358809 -0.54167295 23
3.190135 1.9972907 -0.55847365 23
2.9636309 0.40491307 -0.57005399 30
2.8054516 -0.84915334 -0.56444985 33
2.6556869 -2.3240595 -0.57157522 29
3.4229708 5.0443196 -0.54084128 24
3.1718123 1.9696738 -0.55732882 23
2.9408576 0.38926011 -0.56589156 32
2.8163278 -0.86533952 -0.56522954 33
2.6689944 -2.3546915 -0.57264477 29
3.4064014 4.9823818 -0.54396665 25
3.1874409 1.9624608 -0.56141853 21
2.9617174 0.38045558 -0.57016033 32
2.8270493 -0.88052779 -0.56805569 32
2.6861341 -2.388217 -0.57506806 29
3.3762839 4.8996887 -0.54256821 25
3.1858377 1.9454069 -0.56254143 21
2.9535077 0.36787879 -0.56776536 31
2.8147521 -0.88856828 -0.56359601 32
2.6887703 -2.4082634 -0.57428807 28
3.3739588 4.858108 -0.54661667 25
3.1926098 1.9335133 -0.56514734 21
2.9545767 0.35754308 -0.56880426 31
2.8258564 -0.90293276 -0.56537378 32
2.7243712 -2.4582055 -0.57987314 28
3.3249235 4.7520123 -0.54210776 25
3.1911955 1.9159478 -0.56624895 19
2.9558897 0.34566826 -0.56932372 32
2.8506229 -0.92347401 -0.56889832 32
2.7153599 -2.4690552 -0.57603019 28
3.3202641 4.7120104 -0.54488713 25
3.158978 1.8823814 -0.56204844 18
2.9620566 0.33591273 -0.56974286 31
2.8475704 -0.93348074 -0.56785232 32
2.7139475 -2.4860034 -0.57436919 27
3.2910156 4.6343341 -0.54430318 25
3.1658437 1.8700379 -0.56461555 17
2.9632258 0.32452598 -0.57026315 32
2.8535724 -0.94759804 -0.56813979 32
2.7234144 -2.5130944 -0.57434368 28
3.2889185 4.5922189 -0.54786813 25
3.1559248 1.8471303 -0.56413299 13
2.9546926 0.31107208 -0.56890273 32
2.8497655 -0.95960581 -0.56709021 33
2.7181704 -2.5267642 -0.57187104 28
3.2601852 4.5203581 -0.54549152 25
3.1620121 1.8359047 -0.56668574 12
2.9607449 0.3012636 -0.56932372 32
2.8423831 -0.96762609 -0.56354356 32
2.7196326 -2.5476592 -0.57090366 28
3.2398627 4.4543815 -0.54588962 27
3.2327754 1.8611814 -0.57947475 5
2.9422314 0.28796986 -0.56608176 33
2.8481252 -0.98180026 -0.56433666 32
2.7431386 -2.5886211 -0.57311058 28
3.2225947 4.398283 -0.54807895 26
nan nan nan 0
2.9482024 0.27609161 -0.56753886 33
2.8628259 -1.0003042 -0.56643134 33
2.7698991 -2.6331339 -0.5766201 28
3.2028947 4.3379564 -0.54772514 25
nan nan nan 0
2.9540329 0.26519954 -0.56899774 31
2.8637838 -1.0129942 -0.56628913 32
2.7668815 -2.6514904 -0.57409918 27
3.1813064 4.2789497 -0.54724568 26
nan nan nan 0
2.9452105 0.25456494 -0.5665977 32
2.8653169 -1.0242397 -0.56561226 34
2.7691109 -2.6712987 -0.57296407 28
3.1578579 4.2150574 -0.54612494 26
nan nan nan 0
2.9607487 0.24445836 -0.56993979 31
2.87098 -1.0387135 -0.56530845 32
2.766284 -2.6891544 -0.57107049 28
3.1525211 4.1744342 -0.55073267 26
nan nan nan 0
2.9519558 0.23128717 -0.56805569 30
2.8714976 -1.0525241 -0.56461751 32
2.7876911 -2.7318156 -0.57357281 27
3.1329496 4.1200376 -0.54949111 26
nan nan nan 0
2.94293 0.21921395 -0.56668663 32
2.8815434 -1.0687748 -0.56573164 32
2.7886486 -2.7528625 -0.57165051 27
3.117382 4.0685291 -0.550475 26
nan nan nan 0
2.9438481 0.20791925 -0.56617159 32
2.882396 -1.0811254 -0.56556219 31
2.8104715 -2.7948184 -0.57468796 25
3.1076171 4.0251403 -0.55152911 26
nan nan nan 0
2.9396272 0.19628048 -0.5657438 30
2.8832824 -1.0941048 -0.56377465 31
2.828675 -2.8336163 -0.57553649 25
3.103682 3.9897275 -0.55358803 25
nan nan nan 0
2.9550607 0.18591666 -0.56857246 31
2.9022965 -1.1140872 -0.56664276 32
2.8395982 -2.8654871 -0.57558072 25
3.0793808 3.9258683 -0.55260795 25
3.1001742 1.6331536 -0.56941295 10
2.9360476 0.17340489 -0.56531423 32
2.8938837 -1.1230446 -0.56412095 31
2.8358679 -2.8837855 -0.57346392 25
3.0428059 3.8528602 -0.54808599 26
3.1233718 1.6307775 -0.57446593 15
2.9465387 0.16370536 -0.56668663 30
2.8992896 -1.1368029 -0.56482196 30
2.8568246 -2.9264748 -0.5754987 24
3.0285854 3.8060901 -0.54988527 25
3.0985749 1.6027195 -0.57126951 20
2.932461 0.1511178 -0.56385797 32
2.8993497 -1.1508616 -0.56408101 31
2.8489165 -2.9419081 -0.57190716 25
3.032831 3.7828851 -0.55327791 26
3.0821202 1.5799167 -0.56964749 22
2.9328723 0.14087597 -0.56437045 32
2.9092903 -1.166579 -0.56510907 32
2.8875585 -3.0016658 -0.57795429 24
3.0119762 3.7287865 -0.55206203 26
3.0395114 1.5433666 -0.56250638 24
2.9382968 0.12983027 -0.56531423 31
2.9098299 -1.1791936 -0.56435233 31
2.8940587 -3.0305765 -0.57700253 25
3.0089359 3.6985362 -0.55419481 26
3.0227647 1.5209532 -0.56079865 26
2.9388721 0.11855106 -0.56480086 33
2.9148438 -1.194276 -0.56337273 32
2.873189 -3.0308859 -0.56985444 26
2.9904993 3.6484764 -0.55500937 25
3.0018322 1.4960042 -0.55764991 27
2.9343376 0.10605883 -0.56437045 32
2.9146349 -1.2084734 -0.56260103 31
2.9021387 -3.0861433 -0.57353032 26
2.9813485 3.6102412 -0.55582315 25
2.9939377 1.477746 -0.55752069 27
2.9445384 0.095108055 -0.56625801 31
2.9195385 -1.2230659 -0.56269908 31
2.9115055 -3.1189315 -0.57308733 26
2.9465594 3.541595 -0.55180675 27
2.9902112 1.4623016 -0.55761659 31
2.9448526 0.084829114 -0.56625801 33
2.9427276 -1.2448729 -0.56627685 31
2.9139352 -3.1445611 -0.57126063 26
2.9323537 3.500843 -0.55262941 26
2.9682374 1.4387387 -0.55553877 31
2.935241 0.073273569 -0.56488287 33
2.933671 -1.2543436 -0.56373382 30
2.9267046 -3.1805384 -0.5728662 27
2.9299977 3.4696398 -0.55438191 27
2.9780831 1.4287761 -0.55867529 30
2.9355221 0.060977854 -0.56488287 32
2.9288828 -1.266227 -0.56206322 30
2.9411211 -3.2220676 -0.57279247 26
2.9037292 3.4130769 -0.5518043 26
2.9565668 1.4045135 -0.55538613 32
2.9357259 0.050218217 -0.56488287 33
2.9378066 -1.2834961 -0.56298679 30
2.9496007 -3.255239 -0.57286459 26
2.9029255 3.3869011 -0.55403155 28
2.9573019 1.3909702 -0.55569053 33
2.9359818 0.039971657 -0.56437045 33
2.9290717 -1.2918745 -0.56044585 31
2.9779093 -3.3107877 -0.57518351 27
2.8878944 3.3468382 -0.5529592 26
2.9437661 1.3727006 -0.5540387 32
2.9410233 0.028746018 -0.56531423 32
2.9517603 -1.3148258 -0.56279951 29
2.9760637 -3.3332264 -0.57242602 26
2.8682396 3.2972071 -0.55285561 27
2.93115 1.351899 -0.5534929 34
2.936208 0.01639905 -0.56437045 32
2.955389 -1.3313056 -0.56338394 31
2.9971223 -3.3816793 -0.57404763 26
2.8646257 3.2733881 -0.55414164 26
2.9443157 1.3461486 -0.55687815 33
2.9460676 0.0061702384 -0.56625801 32
2.9737413 -1.3514529 -0.56538469 29
3.0309772 -3.445235 -0.57806444 25
2.8499179 3.2325974 -0.55435216 27
2.9307778 1.3276099 -0.55517244 33
2.9410622 -0.0041065002 -0.56582749 32
2.9737532 -1.3640026 -0.56452453 29
3.0285163 -3.4679859 -0.57511806 26
2.8152621 3.1697917 -0.54986125 27
2.9176061 1.3081651 -0.55344594 35
2.9410191 -0.016425921 -0.56582749 32
2.9594297 -1.3724661 -0.56054688 28
3.0356791 -3.5020132 -0.57398349 25
2.8165581 3.1479363 -0.55235553 27
2.9129343 1.2932684 -0.55452192 34
2.9360344 -0.026647335 -0.56488287 33
2.9729831 -1.3907492 -0.56221533 29
3.0588188 -3.5549498 -0.57583261 24
2.8177316 3.1261144 -0.55481821 26
2.9087703 1.2780721 -0.55336231 34
2.9410169 -0.037986629 -0.56480086 31
2.9990811 -1.4170188 -0.56638783 29
3.0913527 -3.619509 -0.57854855 24
2.8153851 3.1005843 -0.55732137 27
2.9175968 1.2692127 -0.55644161 35
2.9359486 -0.048684333 -0.56385797 33
2.9897742 -1.4260492 -0.56323385 29
3.0848112 -3.6387715 -0.57559234 23
2.8029215 3.0642164 -0.55705363 26
2.9135714 1.2529739 -0.55637962 35
2.935719 -0.060981944 -0.56385797 33
2.9929211 -1.4429699 -0.56317049 30
3.1198528 -3.7075703 -0.57865709 23
2.7935908 3.0316291 -0.55738246 25
2.9038885 1.2368168 -0.5565424 33
2.964941 -0.071943812 -0.56951541 30
2.9881306 -1.4535371 -0.56143069 29
3.1447611 -3.7650959 -0.58149093 23
2.767143 2.9809289 -0.55498284 26
2.8945229 1.2203137 -0.55558246 34
2.9401011 -0.082638003 -0.56480086 34
3.0096903 -1.4776902 -0.56408799 29
3.1376655 -3.7847092 -0.57752013 24
2.7709515 2.963176 -0.5571714 26
2.8989182 1.2090783 -0.55722713 34
2.9350512 -0.093776032 -0.56283295 33
3.0044341 -1.4894538 -0.56116182 29
3.1810229 -3.8657575 -0.58190459 22
2.740639 2.9093125 -0.55319351 25
2.885067 1.190317 -0.55536777 33
2.9493916 -0.10557207 -0.56565648 32
2.9991298 -1.5005431 -0.55999124 28
3.1797209 -3.8931706 -0.57982737 22
2.7684362 2.9163034 -0.5608322 25
2.8663554 1.1703217 -0.55260909 34
2.9440579 -0.11670163 -0.56471533 32
3.0201967 -1.525611 -0.56197977 28
3.1971571 -3.9439359 -0.57935447 23
2.7444115 2.8698561 -0.55877715 25
2.8704698 1.1591623 -0.55477041 34
2.9387803 -0.12779602 -0.56326073 33
3.0235486 -1.5412397 -0.5624336 27
3.2203698 -4.0024705 -0.58167434 23
2.7373314 2.8415287 -0.55942559 26
2.8746295 1.1480242 -0.55639124 32
2.9578402 -0.1410404 -0.56702209 30
3.0349581 -1.5631061 -0.56332046 28
3.236419 -4.0541921 -0.58096242 23
2.7196736 2.8025677 -0.55858189 26
2.8648171 1.1319485 -0.55535048 34
2.9328344 -0.14959736 -0.56232041 33
3.0345719 -1.5756613 -0.56115079 28
3.2435172 -4.0937676 -0.57938862 24
2.7251525 2.7896435 -0.56127727 24
2.8730621 1.1236275 -0.55785298 32
2.9371414 -0.16112649 -0.56326073 33
3.046154 -1.5965548 -0.56318933 28
3.2487383 -4.1284099 -0.57719523 23
2.7072475 2.7510703 -0.55894756 24
2.8591137 1.1043869 -0.55589908 32
2.9660141 -0.17413582 -0.56838417 30
3.0494401 -1.6125518 -0.56179523 29
3.2798488 -4.1995254 -0.57980651 22
2.7134156 2.7371986 -0.56226736 24
2.8579838 1.0930729 -0.55607486 32
2.9408171 -0.18398994 -0.56368685 31
3.0522797 -1.6290811 -0.56098741 28
3.3197489 -4.2828808 -0.58197653 23
2.6984742 2.7022445 -0.56188095 23
2.8712852 1.0843956 -0.56054145 32
2.9498892 -0.19593142 -0.56556576 31
3.0551524 -1.64503 -0.56137669 30
3.324049 -4.3241658 -0.58095455 22
2.7183945 2.7023108 -0.56874782 22
2.8567219 1.06638 -0.55854493 31
2.9737084 -0.20898506 -0.56974286 30
3.0752676 -1.6711242 -0.56311393 29
3.3236859 -4.3566484 -0.57690817 23
2.6892071 2.6537704 -0.56397253 22
2.8417909 1.0495191 -0.55599898 31
2.9337029 -0.21749693 -0.56223392 32
3.0737953 -1.6849463 -0.56146109 31
3.3560886 -4.4327183 -0.57946235 22
2.7060189 2.6499295 -0.56941539 22
2.8457069 1.038003 -0.55758506 31
2.9426384 -0.2295237 -0.56411117 32
3.0806069 -1.7040957 -0.5613758 29
3.382009 -4.5011396 -0.58082312 23
2.7117395 2.6361306 -0.57263273 18
2.8443215 1.0262624 -0.55879104 30
2.9418755 -0.2403155 -0.56359601 31
3.100384 -1.7299066 -0.56486064 30
3.4023876 -4.5613294 -0.58002836 23
2.7209501 2.625756 -0.5765928 18
2.839056 1.0109425 -0.55855185 32
2.9458246 -0.25202835 -0.56453377 32
3.0812366 -1.7347709 -0.5594182 31
3.4185638 -4.618238 -0.57958889 23
2.7229075 2.608439 -0.5796926 16
2.8331921 0.99716866 -0.55830222 31
2.9547172 -0.26422128 -0.56589156 32
3.1094708 -1.7657075 -0.56379646 30
3.4255352 -4.663301 -0.57754433 24
2.6998558 2.5674462 -0.57610631 15
2.8318291 0.98559308 -0.5584352 30
2.9490848 -0.27513582 -0.56340384 31
3.1159523 -1.7852448 -0.56299907 28
3.4586618 -4.7447486 -0.57881349 24
2.6993632 2.5455306 -0.57769984 8
2.8263586 0.97043526 -0.55816901 31
2.9430177 -0.28700972 -0.56246954 32
3.1220148 -1.8054032 -0.56217527 28
3.4924736 -4.8317609 -0.58035952 24
2.6929269 2.5226421 -0.57848734 4
2.829694 0.95945024 -0.56025511 31
2.9419003 -0.29727113 -0.56298566 32
3.124315 -1.8213159 -0.5630843 29
3.5107558 -4.8929381 -0.57986677 24
2.6329911 2.4484396 -0.56753892 1
2.8139462 0.94371819 -0.55812329 30
2.9653585 -0.31114846 -0.56662083 30
3.1436834 -1.8480775 -0.56388122 28
3.526633 -4.9496369 -0.57877427 23
nan nan nan 0
2.8126996 0.9313007 -0.5582335 32
2.9544735 -0.32148027 -0.56423515 31
3.1409838 -1.8627559 -0.56337065 29
3.5530984 -5.0293798 -0.57883573 23
nan nan nan 0
2.7976158 0.91332096 -0.55607146 31
2.9386127 -0.33169574 -0.56092119 32
3.1552739 -1.8883923 -0.56269026 29
3.586484 -5.1163259 -0.57962543 22
nan nan nan 0
2.8004165 0.90343046 -0.55812591 31
2.9619324 -0.34480295 -0.56505954 30
3.1702416 -1.9116575 -0.56582558 28
3.5935819 -5.1666374 -0.57829016 21
nan nan nan 0
2.794318 0.88963151 -0.55728602 32
2.9605865 -0.35617337 -0.56505954 31
3.1801922 -1.9343474 -0.56559926 29
3.6371863 -5.2704325 -0.58164984 22
nan nan nan 0
2.7926886 0.87785268 -0.55737448 32
2.9590988 -0.36752635 -0.56558001 31
3.1902742 -1.9565346 -0.56599122 28
3.6810796 -5.3740687 -0.58364248 22
nan nan nan 0
2.805141 0.86994588 -0.56078273 30
2.9628327 -0.3795476 -0.56494784 30
3.1872785 -1.9715785 -0.56412262 28
3.6841524 -5.4210649 -0.5792048 22
nan nan nan 0
2.7986944 0.85618091 -0.56095058 32
2.9709966 -0.39219421 -0.56732929 32
3.1929512 -1.991305 -0.56372833 29
3.7342114 -5.5382805 -0.58321345 22
nan nan nan 0
2.7829695 0.83969802 -0.55820054 31
2.9648943 -0.40297738 -0.56483257 31
3.1985235 -2.0111005 -0.56331313 29
3.7807555 -5.6518917 -0.58534408 21
nan nan nan 0
2.7809486 0.82797992 -0.55928344 31
2.9681656 -0.41450739 -0.56628317 30
3.1994629 -2.0288744 -0.56214303 27
3.7861407 -5.7029176 -0.58203548 22
nan nan nan 0
2.7744989 0.81447506 -0.55840015 32
2.9617865 -0.42521706 -0.56483257 31
3.2215908 -2.0595012 -0.56394356 30
3.8285794 -5.8129659 -0.5844897 22
nan nan nan 0
2.7632718 0.79966772 -0.55656016 31
2.9699509 -0.43803456 -0.56616354 31
3.2101927 -2.0688279 -0.56054789 28
3.8621478 -5.9109826 -0.5842315 21
nan nan nan 0
2.7517877 0.78490597 -0.55570877 30
2.9634867 -0.44871432 -0.56471384 31
3.235657 -2.1028664 -0.56433624 28
3.8949976 -6.0092444 -0.5849787 22
nan nan nan 0
2.7782183 0.78092194 -0.56148207 31
2.9618392 -0.46010506 -0.56419075 31
3.244812 -2.1257727 -0.56452227 29
3.9262276 -6.1086898 -0.58298177 23
nan nan nan 0
2.7573595 0.76364702 -0.55770636 32
2.9698532 -0.47303563 -0.56551564 32
3.2493401 -2.1466157 -0.56396377 28
3.9576747 -6.2075214 -0.5845601 22
nan nan nan 0
2.7599518 0.75348437 -0.55870503 31
2.9681125 -0.48445141 -0.56499082 30
3.2748127 -2.180727 -0.56626326 28
3.991281 -6.3111429 -0.58244556 23
nan nan nan 0
2.7671854 0.74405396 -0.56166399 33
2.966414 -0.49534303 -0.56446594 32
3.2753448 -2.1984518 -0.56493402 29
4.0039973 -6.3804445 -0.5796122 23
nan nan nan 0
2.7649002 0.73206705 -0.56269914 32
2.9644902 -0.5067296 -0.56446594 32
3.2712233 -2.2139518 -0.56357479 28
4.0573072 -6.5183368 -0.58269656 22
nan nan nan 0
2.7532592 0.71768349 -0.5607968 31
2.9577789 -0.51727897 -0.56301951 30
3.2920375 -2.2456756 -0.56573647 27
4.0835276 -6.6143761 -0.58038908 22
nan nan nan 0
2.760366 0.70822799 -0.56375343 32
2.95103 -0.52778429 -0.56157488 31
3.2964292 -2.2664201 -0.56435394 27
4.1533151 -6.782907 -0.58546281 21
nan nan nan 0
2.7483654 0.694933 -0.56183201 32
2.9635816 -0.54178059 -0.56381083 31
3.3083723 -2.2933891 -0.56503612 28
4.153285 -6.8363285 -0.57899404 22
nan nan nan 0
2.7414474 0.68097907 -0.56136709 31
2.9713356 -0.55499685 -0.56459528 30
3.3083045 -2.3113406 -0.56431299 27
4.2007713 -6.977457 -0.5795123 23
nan nan nan 0
2.7482634 0.67300415 -0.5633294 33
2.9643567 -0.56494504 -0.56420392 32
3.3244278 -2.3407836 -0.56562912 28
4.2239189 -7.0688491 -0.57871413 23
nan nan nan 0
2.7266099 0.65661466 -0.56040597 34
2.9670868 -0.5772807 -0.56459528 31
3.3323843 -2.3647025 -0.56481928 28
4.2707977 -7.2042952 -0.57829714 22
nan nan nan 0
2.709837 0.64157712 -0.55745912 34
2.974684 -0.59062207 -0.56537282 30
3.3356056 -2.3862982 -0.56472582 27
4.3205242 -7.3553281 -0.57855314 22
nan nan nan 0
2.7215452 0.63332343 -0.56088513 35
2.9628556 -0.60010767 -0.56301254 30
3.3352726 -2.4045894 -0.56250197 28
4.3528967 -7.4700246 -0.5772813 23
nan nan nan 0
2.7237661 0.62282509 -0.5618605 35
2.9607217 -0.61151946 -0.5619573 32
3.3548105 -2.4374125 -0.56435114 27
4.4032187 -7.6204534 -0.57685554 23
nan nan nan 0
2.7162857 0.61014909 -0.56134683 34
2.9630656 -0.6238758 -0.56339949 31
3.3618124 -2.4622772 -0.56341183 27
4.4326072 -7.7366366 -0.57503992 22
nan nan nan 0
2.7230105 0.60068589 -0.564282 35
2.9561448 -0.63374251 -0.56142962 31
3.3769238 -2.4924133 -0.56523401 28
4.4724874 -7.869803 -0.57266974 22
nan nan nan 0
2.7106404 0.58705169 -0.5627591 35
2.9631991 -0.64716548 -0.56378478 32
3.3958378 -2.5256517 -0.56768948 27
4.5247478 -8.0301342 -0.57343578 22
nan nan nan 0
2.7030969 0.57456094 -0.56173527 33
2.9606924 -0.65853858 -0.56378478 30
3.3865099 -2.5389683 -0.56399608 27
4.5905504 -8.2171898 -0.57404488 22
nan nan nan 0
2.7048962 0.56458962 -0.56318212 34
2.9679232 -0.67211694 -0.56455004 31
3.3892808 -2.5605044 -0.56375319 27
4.6346478 -8.3645687 -0.57483125 23
nan nan nan 0
2.7018595 0.5531379 -0.56410903 34
2.9508531 -0.68017328 -0.56234246 31
3.3919404 -2.5820954 -0.56349474 27
4.6619196 -8.4870167 -0.57189178 23
nan nan nan 0
2.6794703 0.53784305 -0.5614844 33
2.9625781 -0.69486642 -0.56508118 30
3.3901002 -2.6013153 -0.56256783 27
4.697906 -8.6273136 -0.56985909 24
nan nan nan 0
2.6668112 0.52465779 -0.55988878 33
2.9311976 -0.69939107 -0.55960375 31
3.3964634 -2.6260324 -0.56293052 28
4.7162828 -8.7371559 -0.56727558 24
nan nan nan 0
2.6560493 0.52254045 -0.56354183 32
2.9204915 -0.69683659 -0.5640676 32
3.3520963 -2.592664 -0.56317723 27
4.6401248 -8.5960693 -0.56837881 25
nan nan nan 0
2.6490312 0.5317331 -0.56346601 32
2.903317 -0.68150145 -0.56349814 31
3.3334329 -2.5587573 -0.56443447 26
4.6744423 -8.5877924 -0.584319 16
nan nan nan 0
2.6565604 0.54386407 -0.56550753 33
2.8816905 -0.66476089 -0.56040508 31
3.2988834 -2.5130756 -0.5621798 27
4.6223521 -8.4219484 -0.58759218 18
nan nan nan 0
2.6351907 0.55004007 -0.5618943 32
2.9028082 -0.65790367 -0.56724584 30
3.2714469 -2.4741759 -0.56186247 27
4.5004153 -8.1289978 -0.58457971 18
nan nan nan 0
2.6330595 0.56015438 -0.5618943 32
2.8664653 -0.63863009 -0.56180787 31
3.2607191 -2.4464378 -0.5620271 27
4.3776274 -7.8424811 -0.57608813 23
nan nan nan 0
2.6452391 0.57337087 -0.56495917 33
2.8638115 -0.62650657 -0.56240338 32
3.2566922 -2.4256957 -0.56564897 27
4.371624 -7.7647185 -0.58560508 17
nan nan nan 0
2.6431146 0.58354491 -0.56448674 34
2.861011 -0.61439228 -0.5635044 32
3.241689 -2.3952229 -0.56502753 27
4.2949128 -7.5665622 -0.5824641 19
nan nan nan 0
2.626528 0.5904687 -0.56142443 33
2.8774714 -0.60637832 -0.56788063 31
3.222019 -2.3624823 -0.56435281 28
4.2354665 -7.3985353 -0.58267862 22
nan nan nan 0
2.6196606 0.59950119 -0.55946559 34
2.8504446 -0.58977985 -0.5642246 32
3.1900706 -2.3211262 -0.56217992 28
4.1561608 -7.1957812 -0.57962108 22
nan nan nan 0
2.6267786 0.61175382 -0.56197447 33
2.8574023 -0.57978714 -0.56568497 30
3.1780143 -2.2945867 -0.56275821 28
4.0854802 -7.0167408 -0.57773787 22
nan nan nan 0
2.6246011 0.62188059 -0.56103295 32
2.8640327 -0.56969154 -0.56867611 31
3.1699114 -2.2711077 -0.56331921 28
4.0148072 -6.8376036 -0.57532436 22
nan nan nan 0
2.6269529 0.63310063 -0.56205124 33
2.8273733 -0.55112213 -0.56253839 32
3.1616013 -2.2476635 -0.56452227 27
3.9976523 -6.7542791 -0.57912433 23
nan nan nan 0
2.6197481 0.64201754 -0.56103295 32
2.829082 -0.54018801 -0.56454927 30
3.1369128 -2.2128484 -0.5634523 28
3.9580815 -6.631846 -0.58071023 21
nan nan nan 0
2.6222038 0.65330279 -0.56110793 32
2.8406844 -0.53110647 -0.56697714 31
3.1247988 -2.1863825 -0.56248444 28
3.880559 -6.4506812 -0.57660091 23
nan nan nan 0
2.6246119 0.66461629 -0.5611794 33
2.8423195 -0.52063769 -0.56849021 31
3.1078491 -2.157599 -0.56272984 27
3.854687 -6.3548279 -0.57842666 22
nan nan nan 0
2.6317136 0.6771782 -0.56226045 33
2.8441021 -0.50968516 -0.56949884 31
3.0909774 -2.1291392 -0.56093663 27
3.8229673 -6.2507529 -0.57923204 22
nan nan nan 0
2.629189 0.68730307 -0.56178612 32
2.8264179 -0.49532247 -0.56713384 29
3.0819457 -2.1063039 -0.56188995 26
3.7684946 -6.1136389 -0.57783324 22
nan nan nan 0
2.6218929 0.69616187 -0.56030047 33
2.8135035 -0.48193178 -0.56572014 30
3.0767999 -2.0862842 -0.56419939 27
3.7346203 -6.0045891 -0.58011949 22
nan nan nan 0
2.6146605 0.70499998 -0.55834383 32
2.8200729 -0.47191834 -0.56719124 30
3.0598502 -2.0576847 -0.56227219 28
3.708178 -5.9205198 -0.58048546 22
nan nan nan 0
2.6119344 0.71503443 -0.55834383 31
2.8071139 -0.45767048 -0.56625831 30
3.059288 -2.03952 -0.56525731 27
3.6649394 -5.7996016 -0.57971418 21
nan nan nan 0
2.6329503 0.73166662 -0.56243831 33
2.8085186 -0.44834363 -0.5667547 31
3.0409811 -2.0127814 -0.56324476 28
3.6097975 -5.6684299 -0.57731003 22
nan nan nan 0
2.6305692 0.740906 -0.5614844 32
2.8147705 -0.43826506 -0.56922352 29
3.0273578 -1.9878461 -0.5619573 28
3.6060011 -5.6169238 -0.58044863 22
nan nan nan 0
2.6276307 0.75197226 -0.56053036 31
2.811487 -0.42670327 -0.56874007 30
2.9930754 -1.948929 -0.55803132 27
3.5558174 -5.4943538 -0.57718235 23
nan nan nan 0
2.6294277 0.76342171 -0.56153488 32
2.8032548 -0.41344872 -0.56826264 31
2.99615 -1.9338487 -0.56161666 28
3.5065222 -5.3769422 -0.5751645 24
nan nan nan 0
2.6314991 0.77449226 -0.56158191 32
2.7898304 -0.40152368 -0.56678915 29
2.9772663 -1.907704 -0.5594182 29
3.4847882 -5.3010492 -0.5762223 23
nan nan nan 0
2.6240928 0.78327352 -0.55914527 32
2.7912538 -0.39079484 -0.56728101 31
2.9633994 -1.8828075 -0.55796289 30
3.4643302 -5.2300644 -0.57865006 22
nan nan nan 0
2.6262193 0.79390275 -0.55918795 32
2.7972951 -0.38069516 -0.56974584 31
2.9572539 -1.863724 -0.55926949 29
3.4416161 -5.1546364 -0.57933402 23
nan nan nan 0
2.6183727 0.80351609 -0.55723333 32
2.7889202 -0.36865401 -0.56825858 30
2.9552779 -1.8473799 -0.56073123 28
3.3934433 -5.0423684 -0.57453126 23
nan nan nan 0
2.6341693 0.8194437 -0.56025773 31
2.7952027 -0.35757786 -0.56974041 30
2.9497488 -1.8274963 -0.56077111 29
3.3759382 -4.9750094 -0.57785898 24
nan nan nan 0
2.640734 0.83160686 -0.5617649 33
2.7572725 -0.34343642 -0.56278354 32
2.9345868 -1.8039579 -0.56039035 29
3.3431795 -4.8880787 -0.57648402 24
nan nan nan 0
2.6377079 0.84179997 -0.56079841 33
2.787466 -0.33633322 -0.57020909 32
2.93225 -1.7877464 -0.56238133 30
3.3194511 -4.8190126 -0.57685137 24
nan nan nan 0
2.6346424 0.851982 -0.55983186 32
2.7837713 -0.32504785 -0.5697031 31
2.9220345 -1.7661635 -0.56034106 29
3.2969646 -4.7490144 -0.57704771 23
nan nan nan 0
2.626972 0.86065716 -0.55739367 33
2.7508187 -0.31049854 -0.56321442 32
2.9110584 -1.7449937 -0.56065655 29
3.2833893 -4.6909084 -0.57858098 23
nan nan nan 0
2.6332893 0.87342721 -0.55840182 32
2.7614381 -0.30096349 -0.56666261 31
2.8958976 -1.7215096 -0.55893415 28
3.2514665 -4.6092472 -0.57594275 23
nan nan nan 0
2.625546 0.88206363 -0.55596513 31
2.7577009 -0.28984603 -0.56566316 33
2.9019802 -1.7100792 -0.56246179 29
3.2304065 -4.5439434 -0.57712525 22
nan nan nan 0
2.6267805 0.89371747 -0.55694914 33
2.753722 -0.27777073 -0.56611305 34
2.8914483 -1.6882722 -0.56150544 29
3.2197759 -4.495677 -0.57924807 22
nan nan nan 0
2.6421463 0.91027975 -0.55942196 32
2.7643273 -0.26909634 -0.56860173 32
2.8879888 -1.6734351 -0.5633471 28
3.1980455 -4.4309382 -0.57819897 22
nan nan nan 0
2.6527967 0.92535937 -0.56089532 31
2.7553887 -0.25754997 -0.56756216 32
2.8769522 -1.6523169 -0.56233495 29
3.1816192 -4.3743043 -0.5799647 22
nan nan nan 0
2.6401613 0.93233806 -0.55796027 32
2.7367451 -0.24521093 -0.56402355 33
2.8524942 -1.6243957 -0.55992377 29
3.1443138 -4.2898726 -0.57686824 22
nan nan nan 0
2.6414545 0.94421744 -0.55746871 31
2.7571864 -0.23637426 -0.56804514 32
2.849956 -1.60849 -0.55938476 28
3.1234818 -4.230401 -0.57590574 22
nan nan nan 0
2.6381588 0.95395869 -0.55648953 32
2.7382526 -0.22416307 -0.56546211 32
2.8511047 -1.5953883 -0.56139356 30
3.0969529 -4.162457 -0.57552963 23
nan nan nan 0
2.6485684 0.9692384 -0.55793154 32
2.7342107 -0.21326651 -0.5644542 33
2.8568659 -1.5842384 -0.56367433 29
3.0880401 -4.1188688 -0.57561213 23
nan nan nan 0
2.6497009 0.9812057 -0.55742246 30
2.7397594 -0.20359929 -0.56594163 31
2.8320875 -1.5569533 -0.55997944 28
3.0591185 -4.0463476 -0.57436121 23
nan nan nan 0
2.6505988 0.99312794 -0.5578962 31
2.7598629 -0.19444059 -0.5709427 31
2.8332026 -1.5434295 -0.56250471 30
3.0637681 -4.0232267 -0.57885224 24
2.7085221 2.7189419 -0.60372925 1
2.6608014 1.0086186 -0.55930698 31
2.7410097 -0.18157716 -0.56738007 35
2.8130229 -1.5178248 -0.5595836 30
3.0327673 -3.952379 -0.57554024 24
2.6155438 2.6449239 -0.58183533 1
2.6620324 1.0202596 -0.55828118 31
2.7465138 -0.17231475 -0.56839144 32
2.8092749 -1.503165 -0.56008363 29
3.0133862 -3.89746 -0.57524759 24
2.6339469 2.6831324 -0.58407986 10
2.6581862 1.0305088 -0.55778366 31
2.7274058 -0.1606047 -0.56529969 32
2.8143325 -1.4926288 -0.56286383 29
3.0058551 -3.8584116 -0.57716435 24
2.6072764 2.6755097 -0.57633048 12
2.65905 1.0426056 -0.55724823 31
2.7376812 -0.1506637 -0.5678044 33
2.8022621 -1.4724685 -0.56159413 30
2.9735565 -3.7882302 -0.57425922 23
2.635741 2.7246273 -0.58008522 16
2.655478 1.0529869 -0.55475557 31
2.748019 -0.14065121 -0.56983227 32
2.7985601 -1.457459 -0.56205034 29
2.9593313 -3.7417896 -0.5739271 22
2.6255395 2.7350192 -0.57743853 17
2.6697288 1.0705186 -0.55806631 31
2.7287788 -0.12916327 -0.5667302 32
2.7818286 -1.435194 -0.56039798 29
2.9509969 -3.7032733 -0.57470566 23
2.6159823 2.7451324 -0.57280618 19
2.6706073 1.0822499 -0.55750996 32
2.714581 -0.11804648 -0.56368321 34
2.7867215 -1.4248101 -0.56258321 29
2.9292312 -3.6497462 -0.57461393 24
2.6097121 2.7587285 -0.56957656 19
2.6757877 1.0963295 -0.55789548 32
2.7147188 -0.10761069 -0.5651058 32
2.7875185 -1.4117428 -0.56333476 29
2.9141281 -3.6037896 -0.57398349 24
2.603308 2.7722414 -0.56699973 21
2.6631403 1.1020198 -0.55449206 31
2.7102201 -0.097011037 -0.56408763 32
2.7789543 -1.3946311 -0.56392968 29
2.9017391 -3.5616896 -0.57548225 25
2.628243 2.8174596 -0.57033837 21
2.6908672 1.1256142 -0.55957729 31
2.7252507 -0.087072819 -0.56714225 33
2.7840238 -1.3838187 -0.5655576 30
2.8955698 -3.5276339 -0.57573628 25
2.6014977 2.8093617 -0.56266832 22
2.6824694 1.133671 -0.55711049 31
2.7155812 -0.076327376 -0.56605417 32
2.7624846 -1.3599098 -0.56233811 30
2.8637767 -3.4629416 -0.5724656 25
2.6217153 2.8520927 -0.56515449 23
2.6828814 1.1460065 -0.55652249 31
2.7158542 -0.06589976 -0.56605417 33
2.7716057 -1.3518025 -0.56485111 30
2.8613265 -3.431834 -0.57476562 26
2.6249835 2.8767397 -0.56396377 23
2.6877475 1.1603085 -0.55686355 31
2.7062995 -0.055271272 -0.56401432 33
2.771992 -1.3388398 -0.56609946 30
2.849987 -3.3952782 -0.57494265 25
2.6239042 2.8988428 -0.56065464 25
2.7058461 1.1810304 -0.55998945 30
2.7454612 -0.044567037 -0.57313216 32
2.745846 -1.3126439 -0.56242543 31
2.8279736 -3.3417196 -0.57245302 26
2.6146033 2.9078908 -0.55724233 25
2.6974792 1.1886054 -0.55751431 29
2.7260237 -0.034733884 -0.56904566 32
2.7544982 -1.3049874 -0.56546205 31
2.8172991 -3.3044686 -0.57246268 25
2.6273911 2.943743 -0.55804831 26
2.7201829 1.2111034 -0.56101084 29
2.7212427 -0.024222907 -0.56802404 33
2.7458692 -1.2880126 -0.56431413 31
2.7965753 -3.2559137 -0.57192105 25
2.633388 2.9723196 -0.55739105 25
2.7070298 1.2171553 -0.55760533 29
2.7309053 -0.013822472 -0.5710206 30
2.7369306 -1.2716022 -0.56315053 31
2.8145814 -3.2526815 -0.57774657 25
2.6326716 2.9935443 -0.55530173 26
2.7249742 1.2378237 -0.56065422 28
2.7211499 -0.0033245136 -0.5689739 31
2.7279513 -1.2547174 -0.56301951 31
2.792408 -3.205512 -0.57554269 25
2.6481843 3.0335324 -0.55590099 25
2.7298386 1.251547 -0.5609231 28
2.7065613 0.0061410032 -0.56543154 32
2.7320459 -1.245065 -0.56459159 31
2.7710612 -3.1575656 -0.57323438 25
2.6637895 3.0729945 -0.55853206 25
2.7431209 1.2704058 -0.56301254 28
2.7212007 0.016623076 -0.56849897 31
2.7362309 -1.2348808 -0.56668752 31
2.7690928 -3.132092 -0.57490873 25
2.6632485 3.0941269 -0.55487329 26
2.7254412 1.2743704 -0.55816579 28
2.7309048 0.027168967 -0.57054394 31
2.7227385 -1.2162293 -0.56453913 32
2.7581744 -3.0946195 -0.5744819 25
2.6747978 3.1306789 -0.55527526 26
2.7559922 1.3027515 -0.56333405 27
2.7061 0.038259137 -0.56637627 32
2.7319415 -1.2066388 -0.5675543 32
2.7360115 -3.047194 -0.57190716 24
2.6829123 3.1635814 -0.55494094 27
2.7741158 1.3225911 -0.56626803 25
2.7256224 0.048051775 -0.56999725 31
2.7175672 -1.1895359 -0.56589156 32
2.7223904 -3.0118721 -0.57202685 23
2.7079682 3.2146766 -0.55709922 27
2.7786119 1.3366585 -0.56646568 22
2.7254179 0.058517035 -0.56999725 31
2.7264395 -1.1809658 -0.56786567 32
2.7064099 -2.9722207 -0.56995434 24
2.7018337 3.2336497 -0.55326545 27
2.8043063 1.3635129 -0.57061303 21
2.7349584 0.069229119 -0.5720439 31
2.698905 -1.1567522 -0.56385797 34
2.7178464 -2.9608173 -0.57486498 24
2.721983 3.2821395 -0.55530947 26
2.8216362 1.3847488 -0.57346749 18
2.7198968 0.079299286 -0.56944889 31
2.7028544 -1.1467369 -0.56539536 33
2.7081103 -2.9285915 -0.57479459 24
2.729274 3.315587 -0.55393755 27
2.7902973 1.3826884 -0.56536549 13
2.7295542 0.090071723 -0.57054394 31
2.6933842 -1.1305354 -0.56408846 33
2.7015507 -2.9001012 -0.57537973 25
2.7425721 3.3567405 -0.55451572 26
2.7943642 1.3974838 -0.56497073 6
2.7339795 0.10072829 -0.5720439 31
2.6928988 -1.1181893 -0.56466717 34
2.6846642 -2.8608775 -0.57374185 26
2.7661719 3.4086332 -0.55689812 26
nan nan nan 0
2.7384629 0.11142424 -0.57306725 31
2.6968987 -1.1077287 -0.56619388 34
2.6879215 -2.8433912 -0.57639259 25
2.7808867 3.4550192 -0.55714333 26
nan nan nan 0
2.7282929 0.12245962 -0.57054394 32
2.6872239 -1.0911684 -0.56586552 34
2.6647763 -2.7963352 -0.57315105 24
2.7852678 3.4840531 -0.5555886 26
nan nan nan 0
2.708097 0.13102672 -0.56740052 32
2.6816354 -1.0780104 -0.56546396 35
2.6530776 -2.7656372 -0.57276142 25
2.8031874 3.5342069 -0.55547082 25
nan nan nan 0
2.7369728 0.14343867 -0.57306725 31
2.6858521 -1.0666589 -0.56697714 34
2.6568656 -2.7474239 -0.57528597 25
2.8059227 3.5644114 -0.55377603 26
nan nan nan 0
2.7364554 0.15299161 -0.57306725 31
2.6799667 -1.0540463 -0.56655985 33
2.6497226 -2.7190666 -0.57554096 25
2.8158448 3.6015248 -0.55323011 26
nan nan nan 0
2.7017481 0.16145985 -0.56543154 32
2.6700931 -1.0383425 -0.56466436 34
2.6236877 -2.6745486 -0.5719707 26
2.8304291 3.6476521 -0.55299598 26
nan nan nan 0
2.735399 0.17401402 -0.57211053 31
2.673784 -1.0279762 -0.56616437 34
2.623626 -2.6530969 -0.5729633 26
2.8477457 3.6978731 -0.55324036 25
nan nan nan 0
2.7296281 0.18417297 -0.5720439 31
2.6636803 -1.0123693 -0.56474811 33
2.6284277 -2.6403823 -0.57675654 26
2.8617215 3.7443304 -0.55278009 26
nan nan nan 0
2.7194347 0.19397739 -0.56856984 32
2.6672707 -1.0020299 -0.56624007 33
2.600224 -2.5911632 -0.57090521 27
2.8687344 3.7835298 -0.55105698 25
nan nan nan 0
2.7332129 0.20551132 -0.57211053 31
2.6568573 -0.98702073 -0.56480038 32
2.6021824 -2.5741751 -0.57384086 27
2.8983493 3.8490341 -0.5540815 25
nan nan nan 0
2.7325034 0.21601243 -0.57163215 31
2.6556542 -0.97498602 -0.56579834 32
2.6116171 -2.5637424 -0.57767355 27
2.8935468 3.8721089 -0.54988998 26
nan nan nan 0
2.7171187 0.22529764 -0.56809396 32
2.6452739 -0.95966506 -0.56433004 33
2.6064153 -2.5399439 -0.57836658 27
2.9122899 3.9271262 -0.55013382 25
nan nan nan 0
2.7260859 0.23658399 -0.56965625 31
2.6532753 -0.95105505 -0.56678915 33
2.6117947 -2.5265894 -0.58075321 27
2.9336176 3.9863405 -0.55079627 25
nan nan nan 0
2.7349074 0.24793352 -0.57169437 32
2.6659615 -0.94406641 -0.56974781 33
2.5956733 -2.4926419 -0.57899868 27
2.9251878 4.0055566 -0.54670846 26
nan nan nan 0
2.7143433 0.25658098 -0.56809396 33
2.6598701 -0.93095213 -0.56924856 33
2.5873497 -2.4647608 -0.57876986 28
2.9524217 4.0726218 -0.54823261 26
nan nan nan 0
2.7377944 0.26940796 -0.57271343 31
2.6491547 -0.9157989 -0.56823558 33
2.5776443 -2.4384096 -0.57786953 27
2.9814656 4.144567 -0.54923046 25
nan nan nan 0
2.7368393 0.27992851 -0.57223326 32
2.6432829 -0.90242171 -0.56673622 32
2.5646141 -2.4083328 -0.57611758 28
2.9983618 4.2004461 -0.54970908 25
nan nan nan 0
2.7309752 0.28992882 -0.57073575 33
2.641804 -0.89060545 -0.56720173 33
2.5729811 -2.3985043 -0.57980144 28
3.0149474 4.256587 -0.54916215 26
nan nan nan 0
2.7445395 0.30203032 -0.57330596 31
2.6357193 -0.87729812 -0.56617779 32
2.5709362 -2.3782136 -0.58041841 27
3.0319176 4.3123822 -0.54848075 25
nan nan nan 0
2.7435584 0.31258899 -0.5723421 31
2.6294787 -0.86402005 -0.56562996 33
2.561023 -2.3516839 -0.57997233 28
3.0407047 4.3555064 -0.54705793 26
nan nan nan 0
2.7276521 0.32139078 -0.56977707 32
2.6229334 -0.85123056 -0.56555301 34
2.5510287 -2.3253303 -0.57887155 28
3.0660946 4.4296546 -0.54721981 25
nan nan nan 0
2.7653775 0.33660647 -0.57741606 30
2.6166661 -0.83810496 -0.56450307 33
2.5489204 -2.3047431 -0.57998955 28
3.0863631 4.489007 -0.54662806 25
nan nan nan 0
2.7545693 0.34505278 -0.574902 31
2.6287258 -0.83186144 -0.56747806 33
2.5492365 -2.2889056 -0.58131528 28
3.1011059 4.546051 -0.54539645 25
nan nan nan 0
2.7384341 0.3546885 -0.5723421 32
2.6225538 -0.81783885 -0.56690061 34
2.5210681 -2.2454004 -0.57707614 28
3.1210532 4.6115093 -0.54500443 25
nan nan nan 0
2.7520082 0.36719629 -0.57344836 30
2.6208053 -0.806265 -0.56684726 34
2.5363624 -2.2424061 -0.58112466 28
3.1398022 4.6778073 -0.5434702 26
nan nan nan 0
2.7749333 0.38110542 -0.57801634 31
2.5954876 -0.78757989 -0.56219423 33
2.5186443 -2.2095695 -0.5781275 28
3.1659901 4.7507935 -0.54469347 26
nan nan nan 0
2.7638516 0.39040184 -0.57550812 31
2.6076846 -0.78035885 -0.56517392 34
2.4780469 -2.1579328 -0.56994283 29
3.1819179 4.8128262 -0.54233682 24
nan nan nan 0
2.7771411 0.4026663 -0.57755762 29
2.610472 -0.77028441 -0.56612402 33
2.4594018 -2.1258967 -0.567366 28
3.2254932 4.9159513 -0.54647446 25
nan nan nan 0
2.7902064 0.41550565 -0.58008915 30
2.6038208 -0.75746554 -0.56503427 33
2.4522173 -2.1032896 -0.56674689 28
3.2404616 4.9784517 -0.54373366 25
nan nan nan 0
2.7548001 0.42105159 -0.5725531 31
2.5972049 -0.74473655 -0.56346601 33
2.4483597 -2.0844543 -0.56640005 29
3.2657704 5.057785 -0.54367101 24
nan nan nan 0
2.777555 0.43545017 -0.57660294 30
2.5948286 -0.73377335 -0.5643279 33
2.4446082 -2.0651228 -0.5671494 29
3.2941287 5.140995 -0.54385632 24
3.0888617 2.0367289 -0.57939035 7
2.780798 0.44690517 -0.57711589 29
2.6021512 -0.72506517 -0.56629509 33
2.4297843 -2.0359418 -0.56523412 29
3.3104017 5.2083173 -0.54100692 22
3.0650651 2.037967 -0.572442 11
2.7599261 0.45442867 -0.57212484 32
2.5860398 -0.70988661 -0.56219149 34
2.4101627 -2.0052228 -0.56073195 30
3.3368042 5.2926068 -0.54078633 23
3.053802 2.0466585 -0.56910729 14
2.7729142 0.46651462 -0.57463998 31
2.6024821 -0.70464051 -0.56621033 34
2.4133234 -1.9929299 -0.56258321 29
3.3239911 5.3133044 -0.53289711 22
3.0589755 2.0664136 -0.5681808 15
2.7662747 0.47632709 -0.57363892 32
2.5906038 -0.69075906 -0.56499946 34
2.4086628 -1.9742774 -0.56373489 30
3.3205974 5.3514032 -0.52774471 21
3.0350063 2.0672376 -0.5625748 18
2.7549014 0.48625919 -0.57017201 34
2.5980158 -0.68109202 -0.56696796 35
2.4013345 -1.9515117 -0.56233293 30
3.3153436 5.3848009 -0.52100348 21
3.0931787 2.1234992 -0.57010603 18
2.7869613 0.50296015 -0.57617331 31
2.5864007 -0.66744405 -0.56386983 34
2.4080884 -1.9423885 -0.56503302 30
3.2958672 5.3973784 -0.51438117 21
3.0572431 2.1153569 -0.56225288 20
2.7804782 0.51232004 -0.5741896 31
2.5934947 -0.65866375 -0.56583661 34
2.4074636 -1.9266733 -0.56592751 30
3.3022044 5.4525876 -0.510647 21
3.0417593 2.1211715 -0.55752164 21
2.7735767 0.52206755 -0.57368708 31
2.595813 -0.64865267 -0.56677067 35
2.4025705 -1.9083537 -0.56589746 30
3.2648728 5.4293666 -0.49860752 21
3.066808 2.1553886 -0.55954343 21
2.7815692 0.53463888 -0.57370168 32
2.5981884 -0.63865709 -0.56723762 34
2.4057858 -1.8958877 -0.56659448 30
3.2392931 5.4339647 -0.48788637 22
3.0548711 2.1645706 -0.55553818 22
2.774883 0.54441041 -0.57172209 32
2.5861669 -0.62518185 -0.56505543 34
2.3890178 -1.8685203 -0.56431413 31
3.2393272 5.4752216 -0.4828057 21
3.075568 2.1962118 -0.55671799 22
2.787385 0.55798638 -0.57370239 33
2.5978727 -0.61746329 -0.56806499 34
2.4036291 -1.8651177 -0.56826746 30
3.2170107 5.4832621 -0.47466075 20
3.0919843 2.225091 -0.55776602 22
2.7902205 0.56970567 -0.57369751 31
2.6002245 -0.60748363 -0.56806499 34
2.3944814 -1.8439988 -0.56723291 30
3.2057066 5.5079551 -0.46687981 21
3.1002228 2.2483127 -0.55732173 23
2.7883062 0.58047622 -0.57220638 31
2.5880456 -0.59416789 -0.56587064 33
2.3894367 -1.8255409 -0.56709021 30
3.2032297 5.5503931 -0.46160805 20
3.0998697 2.2662702 -0.55608118 23
2.7956474 0.59321332 -0.57417607 32
2.5902114 -0.58420438 -0.56633407 34
2.3804517 -1.8042432 -0.56546921 30
3.2188437 5.6226931 -0.45759147 19
3.108026 2.2897599 -0.55423158 23
2.7890532 0.60250509 -0.5711993 32
2.5970166 -0.57526916 -0.56830561 34
2.3873591 -1.7944353 -0.5675543 30
3.3044052 5.8215356 -0.46339279 14
3.1080258 2.3073821 -0.55159938 24
2.7869139 0.6132527 -0.57020324 32
2.5992062 -0.56529307 -0.56830561 34
2.3821807 -1.7762696 -0.56630981 30
3.87415 6.8811235 -0.53696275 2
3.1078606 2.3249767 -0.54962331 25
2.813441 0.63042551 -0.57507521 33
2.5869153 -0.55222577 -0.56563324 35
2.3762751 -1.7583511 -0.56711364 30
3.9392807 7.0571871 -0.53681856 2
3.1194687 2.351542 -0.54971969 25
2.8018565 0.63810909 -0.57211614 32
2.5790639 -0.54114383 -0.56446207 34
2.3748534 -1.7432271 -0.5667721 30
3.8545656 6.9624147 -0.51742309 1
3.1310782 2.378341 -0.54839998 26
2.8138795 0.65325737 -0.5730285 32
2.5812116 -0.53031611 -0.56492198 34
2.3772402 -1.7309724 -0.56788063 31
3.9122374 7.1251674 -0.51710367 2
3.1385264 2.4021897 -0.54702413 27
2.8116608 0.66361225 -0.57202011 33
2.5880215 -0.5213666 -0.56597012 35
2.3872254 -1.72489 -0.57088494 30
nan nan nan 0
3.154537 2.4310749 -0.54696685 28
2.8237894 0.67793185 -0.57290643 33
2.5852079 -0.51047844 -0.56492198 34
2.3735604 -1.7011827 -0.56816643 31
nan nan nan 0
3.1767249 2.4685633 -0.54609048 28
2.8215535 0.68886411 -0.57087892 32
2.5968459 -0.5024243 -0.56655657 34
2.3679137 -1.6834108 -0.56631589 32
nan nan nan 0
3.2136204 2.4945369 -0.54859328 28
2.8465254 0.69338179 -0.57161033 33
2.630955 -0.50997639 -0.57061356 35
2.4003198 -1.706449 -0.57139897 31
nan nan nan 0
3.2146635 2.4765179 -0.54938161 28
2.8493609 0.68249327 -0.57058764 32
2.6245694 -0.51920271 -0.56770456 34
2.3946147 -1.7156404 -0.56780046 31
nan nan nan 0
3.2029552 2.4506161 -0.54813939 27
2.8565028 0.67366952 -0.5715434 33
2.6326227 -0.5303517 -0.56837422 34
2.4007354 -1.7333765 -0.56753886 30
4.097981 7.3990431 -0.53510207 1
3.2010453 2.4279647 -0.54892421 27
2.8592994 0.6616984 -0.5715434 32
2.6259742 -0.54046816 -0.56546736 34
2.4223385 -1.7631638 -0.57099009 30
3.9885204 7.1395421 -0.52598757 3
3.181989 2.3951895 -0.54627174 27
2.861819 0.65071464 -0.5715434 32
2.6337464 -0.55261737 -0.56612217 33
2.4237223 -1.7790987 -0.56918937 30
3.4695313 6.1599393 -0.46338114 255
3.1737394 2.3725328 -0.54632044 27
2.8595068 0.63865149 -0.57058764 34
2.6367781 -0.56335109 -0.56573975 33
2.4217668 -1.7907053 -0.56801677 31
3.9230421 6.9058027 -0.53031266 4
3.174639 2.3542581 -0.54702413 27
2.85235 0.62556434 -0.56867611 31
2.6397631 -0.57459623 -0.56488061 32
2.4426925 -1.8213902 -0.57078099 30
3.8984034 6.8042421 -0.5332315 7
3.1589293 2.3247113 -0.54633409 26
2.8640242 0.61713129 -0.57161033 32
2.6425078 -0.58582985 -0.56495917 33
2.4320698 -1.8280417 -0.56773645 30
3.4452984 5.9650273 -0.47685948 17
3.1430497 2.2953141 -0.54559171 26
2.8661609 0.60713023 -0.57161033 33
2.6598363 -0.59942001 -0.56761807 34
2.4376616 -1.8462656 -0.56675243 30
3.2485185 5.5770345 -0.45245081 17
3.1514533 2.2829485 -0.54898787 25
2.8540692 0.5920884 -0.56975543 33
2.657495 -0.61060053 -0.56666636 33
2.4425931 -1.8648026 -0.56734073 30
3.262593 5.55651 -0.46074888 17
3.1595654 2.2712145 -0.55102539 26
2.8659387 0.58308184 -0.57167381 32
2.660187 -0.62198222 -0.56625336 33
2.4440856 -1.8801613 -0.56538934 30
3.231873 5.4582739 -0.46025947 21
3.1554651 2.2507715 -0.55162829 26
2.8679605 0.57203406 -0.57269466 34
