# .PCD v0.7 - Point Cloud Data file format
VERSION 0.7
FIELDS x y z
SIZE 4 4 4
TYPE F F F
COUNT 1 1 1
WIDTH 1563
HEIGHT 1
VIEWPOINT 0 0 0 1 0 0 0
POINTS 1563
DATA ascii
13.734245 2.054728 3.4937449
17.580549 0.5470295 4.5224371
17.616325 0.56024837 3.6133542
12.096317 2.2381773 4.5635328
17.581915 1.2552691 5.1935539
17.631807 2.4322391 4.8580389
10.55699 2.2936187 4.1757278
12.845474 1.4875197 6.2283792
17.589123 2.2305703 4.6480813
13.725698 2.0908127 3.5733886
7.552372 0.5710845 6.1355605
13.691218 2.6220999 3.5948303
13.733768 1.6192245 4.2038059
17.428774 1.1701498 3.3714037
13.609135 2.2790151 3.3808382
17.580549 0.5470295 4.5224371
17.616325 0.56024837 3.6133542
17.643557 2.5161061 3.7808485
8.3200483 3.5178401 4.1265745
2.9395142 0.20644987 4.0343447
17.613647 1.2174253 3.9235411
8.6923771 4.7924719 3.547502
17.597672 1.0252638 4.8338909
17.629936 1.4571791 3.67155
11.922988 -0.1474247 3.2683463
13.731598 1.8995385 3.8102446
10.863764 1.4249663 3.2741508
17.658966 3.6520824 3.7165942
13.682674 1.3437614 4.9483771
12.307904 0.47519398 3.2891326
17.575241 0.54299355 4.8252754
17.638348 0.042466164 4.770844
13.705178 1.9613333 4.7499914
13.710312 1.3312159 4.6536942
17.428774 1.1701498 3.3714037
17.634834 0.046533585 4.4658308
17.616425 1.0218267 4.2001367
13.709034 1.3382025 4.3842196
7.5608234 0.50852013 6.135006
12.589371 1.887949 3.3124146
13.714569 1.3329811 4.003427
10.539682 0.97764301 3.2655368
12.594872 2.2439089 4.2970667
12.052088 2.2528706 4.2811384
13.364769 1.4076114 3.3136902
13.70001 1.3331904 3.7677898
13.609135 2.2790151 3.3808382
16.237207 1.9316673 3.3684604
17.608162 0.53608608 3.9156985
5.3184967 0.45646691 3.167191
13.687976 1.6037989 4.9538198
17.622654 0.46593475 4.4714546
12.901756 0.051239014 4.5348148
13.717764 1.8259063 3.8099294
17.623545 0.50073719 3.6125433
17.586479 1.1651239 5.1923037
12.601734 2.2646971 3.4207754
3.1556995 0.23890662 3.8395109
10.454449 1.4464502 3.2698112
13.670373 2.4352927 3.3779898
17.658281 2.4647188 3.7124057
13.623573 2.3695493 4.8051224
13.718685 1.9133868 3.5537062
13.650797 -0.15203094 4.5691195
17.611282 0.16568851 4.4667954
7.9389553 3.0877228 3.2467418
13.617867 2.2317767 3.6165807
16.424664 0.66427803 3.3538156
17.577061 0.59934616 5.1302795
13.606605 2.2309361 3.3810401
12.754716 0.93419123 3.3033142
17.61031 0.49626064 3.9152038
8.7802944 0.65035105 3.2308021
17.623545 0.50073719 3.6125433
13.735834 1.2696052 3.5312266
13.697962 1.7476707 4.7323952
17.614094 2.0203266 4.6460867
12.890818 0.053750992 4.3136396
12.88394 0.056396961 4.0935993
11.958053 -0.20660925 3.2656102
12.847543 1.4211235 6.2263889
10.88707 1.3359375 3.2730117
13.686747 1.2503133 4.9469142
12.349566 0.35380745 3.2859335
17.61203 0.17380524 3.8598709
12.544083 2.2792082 3.8590095
12.86821 1.2021508 6.2226844
13.636671 1.8393149 3.3399854
13.656469 -0.13295746 3.8687592
5.3709297 0.24887133 3.1624241
13.712838 1.2706876 4.3701468
7.5434227 0.58267713 3.206615
13.202314 2.1366105 3.320858
13.701645 1.2609429 4.0026379
13.677825 -0.20097446 4.8042173
17.581444 0.68969154 5.1320744
13.612568 2.0868769 3.3408208
17.608459 2.4575777 3.4238944
17.61944 0.47340965 3.8636851
4.5230064 0.11670828 3.1497693
13.731945 1.9090023 3.4936345
12.784854 -0.039103031 4.5276313
3.1335063 -0.057410955 3.1177075
17.574003 0.12645435 5.0726967
13.686141 2.1464114 5.6838818
3.1023066 0.18934703 3.8118882
17.663807 2.916048 3.7058139
16.236443 -0.21788502 4.9769769
12.097582 2.2623143 4.0361767
13.703898 1.2121577 4.2382698
17.628292 2.3317084 3.4733052
2.9614806 0.25384557 3.898716
17.629021 2.7314653 3.4744368
12.321482 0.21420527 3.2861261
16.408939 0.74684429 3.3551412
5.3763256 0.20647883 3.162034
3.1008182 0.090999961 3.1217349
10.873369 2.2894535 4.0087614
13.726671 1.2015038 5.6624765
13.703898 1.2121577 4.2382698
17.598877 1.2331429 4.5832777
13.721958 1.4791379 3.5326848
17.604576 1.0961409 3.9222341
17.627544 1.3058939 3.6702693
14.973063 -0.22499371 4.3764353
17.610811 1.8978834 4.6441908
13.678484 1.1867766 4.9450917
17.649662 2.4555964 3.7804346
13.714277 1.8182678 4.7613945
13.700032 1.1890388 4.6508327
17.636497 2.455708 3.4735179
5.3763256 0.20647883 3.162034
13.701809 1.1735649 4.379097
7.5442648 0.50787687 3.2068353
13.709202 1.1994305 4.0020599
13.654537 2.3299074 4.4681897
13.388199 1.2736597 3.312252
13.681116 1.2605476 3.7674546
13.678155 -0.046450615 3.6365747
11.313056 2.2885933 3.6454449
4.5130301 0.10126686 3.151834
17.616405 1.2315769 4.889637
8.7165174 6.389133 3.4592896
4.2077298 0.12966967 3.1427994
2.9513934 0.15641332 4.1080894
13.718402 2.1044855 5.6867266
13.704 1.7566261 4.2047195
16.25938 -0.26071453 4.1376996
13.701509 1.1650419 4.2376332
17.637686 2.2719574 3.4728341
17.613781 0.98984814 4.8856621
13.674267 1.1550403 4.9441772
13.707283 2.0289373 4.4660869
17.448154 0.99332237 3.3693326
5.3626585 0.18762469 3.1642666
7.5686545 0.44853115 3.2045932
17.612581 0.99999714 3.9712806
13.704958 1.1677108 4.0017118
13.72087 2.0607414 3.6524878
13.683474 1.7433634 5.194356
9.898489 0.83083534 6.1837988
16.284872 -0.26452637 4.4179602
16.25938 -0.26071453 4.1376996
13.701509 1.1650419 4.2376332
17.593273 1.2693472 4.5330811
13.711139 1.6769438 4.745347
12.769828 -0.036595345 4.3084545
13.718172 1.4895692 3.4407516
11.936865 -0.26673508 3.2659898
13.64616 1.7702656 3.3395581
11.863415 2.2595205 4.8289933
12.311399 0.28942251 3.2873778
17.655556 2.3950791 3.7800112
7.5482512 0.54505873 6.1329598
2.41768 -0.12341821 3.0986514
17.638428 2.39464 3.4732661
17.613977 0.90128231 4.1985998
17.597042 1.6687956 6.174819
13.219615 2.0480189 3.3203084
10.719443 1.7134142 3.2813859
17.226814 1.5642076 3.3806205
13.632301 1.9801335 3.3401096
12.254625 0.82227135 3.2941248
15.30145 -0.2061305 3.3387775
12.761663 0.017690182 3.4397254
17.649828 1.9676971 4.5955772
17.597977 1.0336761 5.1649342
17.622089 0.14194489 4.771523
11.741473 2.2646551 4.27209
8.3214798 4.286562 3.427665
12.862114 1.3343768 6.2260208
17.61084 1.1169071 4.27707
13.630096 2.2989593 4.8042006
11.179025 1.9792428 3.2849982
13.719282 1.8309221 3.5495522
17.584206 0.30769634 4.5191269
7.5224895 0.69422531 6.1330175
17.615923 0.05845356 3.5554204
2.4303207 -0.16581452 3.0953283
16.467146 0.5274229 3.3509545
13.550516 2.1736941 4.7178078
17.584206 0.30769634 4.5191269
17.584141 -0.31770706 4.7627773
7.5887747 5.3465042 4.6036077
13.711704 2.12328 4.806139
12.894928 -0.076310158 4.3118958
12.872051 -0.073907375 4.0916214
17.63102 1.1855936 3.6691141
11.923387 -0.32663536 3.2659116
13.64743 1.6999164 3.3394566
10.902219 1.1897755 3.2723627
17.664675 3.527185 3.7162967
15.638098 0.35299587 3.3326373
15.571976 -0.28145552 3.3272734
17.630379 2.2990136 3.7796094
16.008762 1.4000096 3.3740888
12.902203 1.0734606 6.2247481
13.701036 1.0516639 4.6515522
4.5330954 0.08241272 3.1483393
10.740992 2.28126 4.0234699
17.61676 0.82522488 4.2062168
13.697213 1.0297718 4.3928795
13.625831 2.1784706 4.8016539
17.617428 1.301713 3.9746337
13.228284 1.9807343 3.3200593
13.718288 1.122479 4.0013213
13.67324 2.1659036 4.4666815
17.591892 1.1052599 5.1916556
17.572533 0.53909111 5.1289773
13.675289 -0.092533112 3.6360266
12.120049 2.2494736 4.6714149
13.723019 1.9691954 4.2633848
4.2135372 0.051715136 3.1429853
12.231676 0.92333794 3.2957754
13.596996 1.2793117 5.6476946
13.737682 1.1085305 5.6615858
17.586578 0.23998642 5.1251683
12.618223 2.2507677 3.3828068
13.699291 2.0490999 4.8039594
17.604862 2.1284652 6.1879315
7.4431515 1.0798714 3.2114718
13.712278 1.6158175 4.6584148
17.584799 -0.3730154 4.4580855
15.61033 -0.36016703 3.3246584
12.277149 2.2631717 3.8602734
13.716444 1.5457311 4.2026205
10.911609 1.1541028 3.2718244
4.545269 0.062473297 3.1463032
16.485722 0.44462299 3.3494329
17.575758 0.47929096 5.1282339
16.272926 -0.25657034 3.8583589
4.224309 0.026776075 3.141139
13.699291 2.0490999 4.8039594
17.584799 -0.3730154 4.4580855
15.61033 -0.36016703 3.3246584
13.694811 1.6050787 4.729763
17.644476 1.8108621 4.6443176
11.943501 -0.36639214 3.2642064
13.65026 1.6299324 3.3392525
17.592625 1.743432 4.6412201
13.670712 1.0455208 4.9418812
12.589193 2.2575145 3.5664563
17.287376 1.6306629 3.3790534
12.933901 0.9884491 6.2279067
3.1174965 -0.017842174 3.1211851
5.3429976 0.3138833 3.1658535
13.631611 2.7218752 4.7323637
17.594418 1.4859552 6.1699529
17.615294 1.2411671 3.9739752
13.715928 1.0598536 4.0006495
8.3085613 3.8561964 4.2364435
13.711895 2.0870194 4.4869909
11.732035 2.2441568 4.6475506
13.714861 1.0776515 3.7655594
13.721584 1.2617893 4.4361248
12.2722 0.63776779 3.2921677
3.1276879 -0.081322789 3.1200404
5.9262848 0.37897301 3.1894357
17.615519 1.1106682 4.8876677
8.7027464 6.2839384 3.4509845
4.5135193 0.26513934 3.1488159
4.8875504 0.29470038 3.1568489
13.702009 1.6067414 4.8556595
13.710231 1.9590273 5.6812592
12.588783 2.2427835 3.8305578
17.657391 2.8361907 3.7142015
17.628864 0.62090778 3.6138127
13.699343 2.1039944 5.2043295
13.696585 1.055388 4.2361526
15.62233 -0.41285467 3.3234158
17.611732 2.7217846 3.5271745
17.603611 0.80838299 4.882247
13.666157 1.0138874 4.9409537
13.724344 1.5666862 3.8081913
13.679209 1.1768088 5.1815777
5.3841314 0.13855672 3.1613727
17.616972 0.9499073 4.885211
17.602337 0.8189497 3.9691443
13.724606 1.0296478 4.0003791
13.685865 1.2055135 4.7091618
16.465887 0.35983658 3.3492146
17.632401 0.82463074 3.6654871
13.692083 1.028501 3.7654009
13.691568 1.6024308 5.191926
9.9081345 0.68025827 6.1802344
4.217936 0.012969971 3.1426055
13.697306 1.0243354 4.2357807
15.62233 -0.41285467 3.3234158
13.71306 1.3370376 3.5322547
13.697926 1.5456514 4.7355957
13.715076 1.3369651 4.1742291
10.779599 1.5954566 3.2784758
17.621666 2.5826426 3.4238195
16.106281 1.3561807 3.3704123
13.656712 1.5605412 3.3388631
8.6762867 3.031651 3.3882632
15.643042 0.19454145 3.3306749
12.346548 0.1051836 3.2836742
17.642822 2.1784759 3.7786922
7.567102 0.39488006 6.131567
12.923578 0.92089891 6.2239804
8.6651039 3.0361929 3.3526554
17.652172 2.8219771 3.5265021
17.641464 2.1808119 3.4723601
7.461937 0.93249846 3.2116466
13.712078 0.96633244 4.3527646
10.911609 1.1541028 3.2718244
17.628973 1.5823631 4.793807
13.257563 1.894279 3.3188515
14.97851 -0.22860098 4.6341801
16.297361 -0.2684679 4.6993475
11.91667 0.45070744 3.2747188
17.568222 0.38902664 5.1262488
17.557961 -0.26250648 5.0656681
5.2576666 0.71396327 3.1699643
13.726267 1.8484969 4.3782434
13.736496 1.84934 4.2860193
5.3783383 0.15510321 3.1621408
4.217936 0.012969971 3.1426055
17.600513 0.90155983 5.1369486
17.658276 2.6419811 3.7814441
17.594723 0.1204052 5.1238632
13.712021 1.8789301 4.8810096
17.613451 0.96657085 4.275197
13.581491 2.2174082 4.7995381
13.530104 -0.0017814636 3.4098384
15.622156 -0.46557426 3.3226278
11.160304 2.2853537 4.2551208
17.639465 2.1836529 4.5812044
17.65274 1.9761257 3.6751528
10.717663 1.8246622 3.280695
13.667768 1.1074986 4.9427986
8.744915 2.2489407 5.9953518
13.720896 1.8211551 4.5232525
17.600159 -0.49713898 4.7609196
4.2193074 4.4345856e-05 3.1424747
15.622156 -0.46557426 3.3226278
17.598572 1.0823746 4.5811162
17.620049 0.79676342 3.9188385
17.574478 0.48302269 4.8243189
2.4020941 -0.016243815 3.0984812
17.633652 1.0653257 3.667923
11.299509 2.274621 4.6545439
17.603996 1.6841121 4.64083
6.620266 0.35795259 3.1893158
12.364919 0.043819904 3.2820213
12.411846 2.2051868 6.1787143
17.609339 1.1703033 4.5322628
12.934935 0.86307335 6.2243571
13.660177 0.90190363 4.6639271
3.1393304 -0.10774148 3.117219
13.625828 2.4029408 4.051177
17.612942 1.1806622 3.9733076
13.72827 1.5653086 4.0449939
13.694149 3.2333827 4.5630922
13.703642 1.9660826 4.4849286
14.954746 -0.18190289 4.8908529
13.667949 2.1949959 3.8421993
17.588581 0.95426941 5.1888037
17.572224 0.29934025 5.1250973
13.718429 2.0470424 4.2081347
13.682318 0.97611284 4.2348213
12.87229 0.029495716 4.1300888
17.633896 1.7521057 4.5919485
4.9087315 0.21187353 3.1546547
17.617619 -0.29987144 3.5504513
17.649063 2.5786591 3.7811656
17.579836 -0.36856556 4.155118
10.440004 1.5335007 3.270246
9.8825579 0.96387529 6.1855693
17.584517 0.068445206 4.5156713
17.608238 1.3211088 4.6357536
17.595516 -0.50790405 4.1532722
17.584867 -0.24481106 3.8541832
13.3787 -0.04936552 4.5948071
17.614407 0.69973278 3.9677453
13.674551 0.93119192 3.9990263
12.304785 2.2560005 4.8265667
12.905256 -0.10805559 4.5326033
17.632502 0.70452881 3.6641867
13.657922 0.93194008 3.7649374
17.614079 1.1709328 4.8885431
13.68424 1.530405 5.1896362
8.7755108 0.71816492 3.2310905
11.205417 2.2202306 5.9621305
17.597927 1.0888901 4.5307221
13.688187 1.4734955 4.7337794
17.596819 1.5922537 4.6392088
12.299074 0.39190722 3.2889349
14.481432 -0.16799259 3.370965
13.666637 1.0302291 5.6504822
13.672434 1.4222913 3.3378625
17.59156 1.2460032 6.1638894
6.6282258 0.28326106 3.1886678
13.720381 1.4247837 3.8071938
13.665144 0.97911644 3.76528
7.583147 0.42212653 6.1377602
13.679323 1.0362997 5.1787024
12.815811 -0.0067763329 3.4746661
13.676241 0.98266459 3.5311403
17.603611 0.80838299 4.882247
13.706063 1.9786525 4.8030915
13.710629 1.4919901 4.0441275
10.684729 1.947926 3.2816346
17.586107 1.2551346 5.2445536
13.731726 2.113627 3.8385258
17.604712 0.18067837 5.1255116
17.57457 -0.38196468 5.0650082
12.271111 0.55503988 3.2916718
5.2903743 0.57237697 3.1688914
5.9407234 0.25586224 3.1885157
12.801762 -0.01598835 4.1282291
13.721502 1.6950116 4.2641096
17.604099 0.52211285 4.2191195
4.908792 0.14949083 3.1554236
17.63652 1.2466774 4.7890081
12.262784 0.74032831 3.2932711
12.781044 -0.025416374 4.7821136
17.564583 0.059675217 5.1207905
17.642517 2.679915 3.6964374
13.705866 2.2029581 3.3771381
13.699102 1.93642 5.200304
17.586796 1.2584171 4.9386902
6.6200085 0.42289877 3.1889806
13.71225 1.8628612 4.801362
13.732318 1.8732028 3.8506937
17.59156 1.2460032 6.1638894
6.6457839 0.21057868 3.186758
13.695367 1.0427561 4.7070341
17.586107 1.2551346 5.2445536
16.486702 0.24918461 3.3472197
12.596951 2.2210579 4.5162258
9.929493 0.53164148 6.1799803
17.586796 1.2584171 4.9386902
13.690735 1.1938629 3.5321021
13.699861 1.4044471 4.7332973
17.60807 0.70592785 3.9177651
13.732318 1.8732028 3.8506937
17.624054 0.88410473 3.6662364
17.596348 -0.37747097 4.7624998
12.244106 2.2515569 4.7143593
15.553171 0.007130146 3.3318729
13.651543 2.1906424 5.2019734
17.636604 2.0553527 3.7778735
7.5772848 0.26197696 6.1290317
12.948857 0.74867392 6.2236423
13.591169 2.2460485 4.3264771
17.63722 2.0580554 3.4719148
13.61737 2.2322083 4.0632095
13.708576 1.907506 4.8019433
17.606392 1.1198311 3.9726162
13.719385 1.4002342 4.0432968
13.666365 3.110672 4.5800271
17.605515 -0.36406231 3.8523808
13.703119 1.8954296 4.4706564
17.587866 1.1948957 5.2436094
17.589767 0.83393574 5.1868391
11.939515 -0.40627193 3.2638409
17.601841 -0.35961723 3.5499122
13.708271 1.8997912 4.2063618
17.584152 -0.25354576 4.4598255
4.9166737 0.072839022 3.1548049
17.58814 0.74359035 5.185195
17.66189 0.051386833 4.1623387
13.723473 1.7197986 3.5595024
14.97612 -0.20444727 4.1200485
13.719986 1.3266788 4.5159001
17.611643 1.2036295 4.6341887
13.724375 1.8243318 3.8504238
7.5864935 0.24594307 6.1312332
12.948857 0.74867392 6.2236423
17.587866 1.1948957 5.2436094
17.604351 -0.43731308 4.762013
17.611643 1.2036295 4.6341887
17.619596 1.4433117 4.637989
13.713118 1.6870327 4.2041383
13.722509 1.6845336 3.8090036
17.605091 1.502306 4.6382484
13.67849 2.7340407 4.4947863
6.6557417 0.18993139 3.185606
8.6852255 5.3357697 3.7675667
17.599056 1.028758 4.5299177
7.5855236 0.29530048 6.1329379
17.637943 1.966722 3.4714448
10.647383 0.75889349 3.258342
13.699114 1.8289247 4.7998977
17.607599 1.0597477 3.9719458
13.692791 1.3274107 4.0423269
13.708033 1.8240261 4.4830799
13.736391 1.9843869 3.8378062
17.582947 1.2213917 5.5494871
5.9607067 0.13423944 3.1863961
12.876064 -0.098120689 4.128366
13.72196 1.5531249 4.2624416
4.918098 0.027032852 3.1548655
17.574352 -0.32217312 5.0658836
17.609753 -0.44913101 3.5484157
7.559618 0.45750022 6.132165
13.720776 1.3962431 4.5169635
17.602283 1.1361074 4.9376202
17.62994 1.7832527 3.470644
15.627617 -0.67657757 3.3190846
17.594406 -0.52241611 4.4561777
15.617804 -0.51825809 3.3219867
6.6340742 0.16525149 3.1881423
16.505831 0.16612816 3.3455596
13.719397 2.1121259 4.3740039
4.9274387 0.011616707 3.1533589
17.602283 1.1361074 4.9376202
15.627617 -0.67657757 3.3190846
13.699099 1.334938 4.7320852
17.632401 0.82463074 3.6654871
17.604059 0.12363148 4.1931973
13.67481 1.2824101 3.337311
12.894153 0.033168316 3.9106011
6.6340742 0.16525149 3.1881423
4.1843433 0.26424861 3.1442604
17.631294 0.19771767 3.9113541
17.633152 1.8751302 3.7765441
17.607944 0.96927357 4.5293922
11.207119 1.8682842 3.2841811
17.623089 1.6979527 3.4202259
17.631783 1.8776751 3.4711308
6.8191104 3.030967 6.1579919
17.615202 2.9033213 6.2119565
13.710848 1.750072 4.7992201
17.610447 0.95973778 3.9708118
13.659238 2.9514661 4.5572481
10.533621 0.87011194 3.2658529
13.699461 1.7645898 4.4620676
11.955224 -0.4661603 3.2620444
12.860527 0.59797287 3.29602
4.5364714 0.023017645 3.1483128
5.9358101 0.10222125 3.1897221
13.637035 0.95736504 4.9246931
17.593777 1.7903371 6.1774974
4.9274387 0.011616707 3.1533589
12.27969 0.59706593 3.2915065
13.626743 0.955935 5.6435361
17.579718 -0.25795746 4.7634435
12.313259 2.2606277 4.2709255
13.711357 1.6213078 4.4014478
13.719227 2.133862 3.3767037
17.591846 -0.42825794 4.1544085
17.599369 1.0785351 4.9365225
17.637051 1.7264862 3.4701169
15.634577 -0.72684431 3.317986
17.588715 1.1124792 5.2422113
2.4172869 -0.22071278 3.1024261
17.591612 -0.78360844 4.1490197
6.6398306 0.14530945 3.187458
3.1386175 0.20140469 4.0181513
13.691961 1.716949 4.7974048
5.8273945 0.80373311 3.1950998
9.937706 0.43210888 6.1786175
4.9169488 -0.0040619373 3.1551995
17.599369 1.0785351 4.9365225
15.634577 -0.72684431 3.317986
17.586777 1.0740976 5.241385
13.708324 1.2400475 3.5705161
13.709814 1.2738223 4.751658
13.617867 2.2317767 3.6165807
12.874537 0.042524815 4.7897739
12.872887 0.023688316 4.5692115
17.632555 0.76457214 3.6648412
10.875126 1.2597027 3.2738991
17.585882 1.0926704 6.1596656
17.600723 0.19262886 4.2145739
17.570919 0.39301014 4.8227601
5.3817291 0.083230019 3.1620042
13.704883 1.2584982 4.6641912
8.6938782 5.0017796 3.8567157
17.600588 0.3865757 4.4952035
17.602337 0.8189497 3.9691443
5.3796887 0.17817211 3.1617632
3.091959 0.29669881 3.9239173
13.710933 1.2805042 4.0420051
2.4172869 -0.22071278 3.1024261
13.724375 1.8243318 3.8504238
17.581915 0.6545639 5.1832495
11.94245 -0.54386759 3.2615333
17.537462 1.3108559 4.9366493
17.583771 0.60344696 4.8266506
11.282946 2.2855873 4.3901062
13.718176 1.4817748 4.2614861
17.60194 1.2630873 4.634654
17.619808 1.1242313 4.7862964
14.972622 -0.16352606 3.6078615
13.68779 1.6085267 4.4659925
17.606636 0.84576321 4.2734885
17.595247 -0.54771996 4.1526709
17.589739 -0.73156452 4.4529009
17.594738 0.26655769 4.4932947
17.610163 0.10729313 3.9101496
7.2854762 1.8866417 6.1544666
9.9434891 0.36598682 6.1778936
13.692926 1.2058811 4.5129242
13.707339 1.0791397 3.5308895
12.940537 0.83413696 6.2245412
17.632502 0.70452881 3.6641867
17.6154 0.11152172 3.6079113
17.588678 -0.59511375 3.546627
17.606073 1.3813572 4.6365376
17.611595 0.054208755 3.8582711
13.725025 1.5594926 3.5523934
12.319996 -0.24436569 3.2808266
17.608654 0.90913486 4.5285692
11.241892 1.7585654 3.2828526
17.650316 2.4530315 3.5254378
11.343637 1.3516035 3.2784266
10.654856 0.65238285 3.2575293
13.688103 1.3894267 5.1869183
8.8137493 0.53709078 3.228076
17.613945 0.8798542 3.9698939
13.707327 1.2121119 4.0412607
13.648283 2.9094329 4.5760584
12.7054 -0.064628601 4.3425341
11.322025 1.3094516 3.2797327
17.620001 1.8188591 3.4209948
12.863129 0.46814156 3.2948728
17.592806 -0.43276691 4.4574585
6.6457839 0.21057868 3.186758
13.726767 1.4128628 4.2608557
15.649266 -0.56868553 3.3199825
12.101667 2.2404051 4.3528609
17.574583 -0.44175911 5.0641241
17.575148 -0.92026711 5.0572548
14.97391 -0.21612358 3.6362922
17.557468 -0.2946825 4.8117094
17.621964 1.316762 4.3141212
13.670254 2.0438328 3.3586464
13.675938 1.8133597 5.1952605
10.465891 1.3947549 3.2693319
17.601398 0.67186356 4.2210569
17.604755 0.18874168 4.5181284
13.667764 1.1417546 3.3370404
12.340595 -0.30805016 3.2788491
4.5212259 0.13069439 3.1498981
17.575148 -0.92026711 5.0572548
17.557468 -0.2946825 4.8117094
17.614237 0.39496517 3.8883171
13.710651 1.4940052 3.8077903
17.632053 0.64749241 3.6635592
7.3324299 1.7416346 6.154387
13.667764 1.1417546 3.3370404
12.877939 -0.095061779 3.9088764
16.655455 2.7226624 3.5488672
13.620559 -0.15982103 4.8392434
5.3811278 0.0011367798 3.1623192
17.589363 0.81753254 4.5265961
13.71608 1.1353798 4.657506
11.295157 1.6520867 3.2803288
17.647789 2.331346 3.525018
13.685743 0.97887325 3.9996095
11.363695 1.2753 3.2773569
13.125072 -0.75751829 4.5339584
11.914122 2.2623911 4.4849062
13.316696 -0.041779041 3.9094658
8.8311148 0.40772438 3.2264211
3.0858045 0.19946933 3.9452381
17.618504 1.3284636 4.026042
13.0963 -0.75310659 4.3083358
13.715869 1.1405392 4.0405769
12.298823 2.2649283 4.5029488
13.658751 -0.12195969 3.908258
17.584499 0.98198509 5.2395973
13.71765 1.7516942 3.8418696
17.580997 0.53443336 5.1811953
11.926348 -0.68376446 3.2600884
13.641092 -0.14316893 3.6758337
4.5369711 -0.044435263 3.1486819
6.6161003 0.22808051 3.1902087
15.628567 -0.62120199 3.3199458
17.614647 2.7786822 6.2080421
17.594254 1.3102016 5.5523005
12.115322 2.2524409 3.8249915
13.709705 1.1941686 4.1828294
17.565762 -0.35435486 4.8112612
13.667638 1.9137979 3.3520956
13.704187 1.469408 4.4646554
17.62117 0.29110336 3.6100793
13.625883 2.9838257 4.7775078
13.115065 -0.82465172 4.5324774
15.645292 -0.77990484 3.3166814
17.665424 2.1778302 3.5239291
17.581593 0.94769096 5.5441084
12.356783 -0.34925127 3.2773986
5.382452 -0.015847921 3.1621261
13.097496 -0.74956036 4.0848484
4.5545607 -0.078740358 3.1455328
9.9398861 0.31369781 6.1754522
17.565762 -0.35435486 4.8112612
13.115065 -0.82465172 4.5324774
17.665424 2.1778302 3.5239291
13.697128 1.0962648 3.5698788
13.726707 1.1349277 4.7503452
12.953097 0.7026329 6.2231479
12.863159 -0.10747004 4.7866292
12.860697 -0.10451174 4.566637
17.621349 0.55543327 3.6626706
17.590794 -0.71738243 3.5446506
17.590748 0.94048977 6.1569452
13.720228 1.426826 3.5712543
10.474039 1.2530656 3.2693329
12.356783 -0.34925127 3.2773986
5.382452 -0.015847921 3.1621261
17.609617 1.330719 3.7218561
17.616774 0.66188145 3.967289
10.637018 0.45632267 3.2577562
17.599388 1.3328333 3.4184976
3.1041675 0.1858964 3.9183683
13.712354 1.0770025 4.0398607
13.68853 1.5369649 4.4781671
17.573833 0.88934231 5.2371736
13.711323 1.6800861 3.8495216
17.577726 0.44575977 5.1795034
12.877613 0.31899166 3.2928314
17.587629 -0.60901451 4.454669
6.6417828 0.10794926 3.1871743
13.511303 -0.1393199 4.1193371
13.718977 1.2583303 4.2652936
17.608961 1.2945108 4.5845337
17.553871 -0.41705322 4.8097048
17.554825 -0.29909134 5.1146278
17.644112 1.9105067 3.7262313
17.594669 -0.60445786 4.1518059
17.605476 1.8835101 6.1814361
13.713739 1.6377878 3.5723908
17.616009 1.5997496 3.4698648
13.105467 -0.87071991 4.5313263
17.657919 2.6684041 3.5259748
12.33288 -0.39265442 3.278034
5.4034977 -0.032222986 3.1589191
17.612377 0.84309959 4.0204353
13.710638 1.0440989 4.0394878
13.700306 1.2045503 4.749896
9.9437885 0.26200294 6.1748586
17.553871 -0.41705322 4.8097048
13.105467 -0.87071991 4.5313263
17.593468 -0.58532143 4.759285
13.690569 1.046607 3.569705
17.626038 0.46729755 3.6615725
7.3646359 1.5396161 6.1456981
12.948579 0.79288244 6.224834
10.685138 1.8920393 3.2820961
4.2136936 -0.022536039 3.1438448
12.745681 -0.011908054 3.6936378
5.4034977 -0.032222986 3.1589191
2.9281006 0.23904121 3.6612341
4.5448384 -0.089391708 3.1473761
17.609756 1.2522287 4.3044529
17.626528 2.407125 4.8065605
8.8611679 0.27828407 3.223474
17.616169 1.2708807 4.0253954
17.612377 0.84309959 4.0204353
13.707637 0.99708652 4.0389442
13.664422 2.6989117 4.5337477
11.346697 1.2137079 3.2783728
14.963931 -0.25354624 4.419013
17.565632 -0.82727814 5.05793
17.590816 -0.66882229 4.4538765
6.6468201 0.057616472 3.1864676
4.9194059 -0.05916214 3.1549146
8.6664257 3.2873609 3.3710313
17.562359 -1.0624447 5.054399
13.415401 -0.037643433 4.8078079
17.618664 0.16176414 3.6579075
17.603783 -1.08391 3.8410816
11.949295 -0.76551867 3.2573526
17.598715 0.66659927 4.2709627
17.601631 0.95515919 4.9346786
13.107767 -0.91500807 4.5307951
15.571847 -0.83326626 3.3186049
17.574999 -0.47230339 4.507391
17.649853 2.6096401 3.4910774
13.44615 0.69003582 3.3065298
13.655487 0.99871254 3.3368583
5.4047046 -0.049286366 3.1587198
17.431517 2.8240504 3.4296403
4.5331268 -0.10932636 3.1496017
17.616608 0.7833271 4.0197368
13.707637 0.99708652 4.0389442
11.364965 1.1574688 3.2773154
7.5857964 0.066342831 6.1244774
13.714785 1.8429775 4.3252401
10.616314 0.54294968 3.2595403
7.6064119 0.16561508 3.2006345
17.560831 -1.1022768 5.0537424
17.603783 -1.08391 3.8410816
13.107767 -0.91500807 4.5307951
17.574999 -0.47230339 4.507391
12.781765 0.0037736893 3.7286568
13.675628 0.99847126 3.5697517
12.966786 0.57192135 6.2221813
13.723179 1.2784328 4.1801867
13.706966 1.2821727 3.8061953
17.612959 0.4067831 3.6610465
17.590908 -0.80386734 3.5432456
13.638306 2.3840108 4.4881897
8.7877064 0.61609983 3.2302177
5.9590092 0.17147326 3.1865227
17.602522 0.68046474 4.5080004
13.639286 1.3952684 3.7689543
4.5331268 -0.10932636 3.1496017
13.681016 3.1640277 4.5815411
17.615429 1.1924229 4.3038168
5.4047046 -0.049286366 3.1587198
10.636112 0.31057835 3.2568638
17.597807 0.87783623 5.0863733
17.623241 1.4472647 4.5872431
17.613926 1.2103434 4.0247078
13.081844 -0.88819504 4.3058195
13.664679 0.94606018 4.0380034
11.364965 1.1574688 3.2773154
17.578632 0.79646301 5.2359452
13.089039 -0.88478708 4.082593
17.571499 0.32260036 5.177053
11.88246 -0.84480429 3.2596438
6.6443706 0.035933971 3.1866815
4.1785278 0.19090283 3.1474075
13.713943 1.1872234 4.2773151
17.600513 1.1729698 4.5824833
5.3717928 0.018296242 3.1637187
17.578907 0.30354977 4.8218226
13.699728 2.0816379 4.9643888
13.68763 1.9599228 4.9609537
7.584703 0.19472694 6.1287022
17.616503 0.10191822 3.6571629
13.719255 1.4026275 4.4380112
13.674942 1.6708856 5.1919065
17.601858 -0.66430473 4.1509995
17.6464 1.3582115 3.4673443
13.672508 0.94443512 4.2731085
17.570667 -0.53198051 4.5063524
16.28326 -0.28214359 3.3475876
13.706327 1.7568154 4.541357
4.5419159 -0.12282157 3.1479671
5.3979616 -0.066884518 3.159719
17.608656 0.72275829 4.0189514
13.664679 0.94606018 4.0380034
11.920699 -0.88617086 3.2567105
9.9367447 0.19454622 6.1712875
10.658403 0.27657223 3.2551675
17.58383 0.27111816 4.5688553
17.616503 0.10191822 3.6571629
13.545164 -0.013746262 3.4861054
13.672508 0.94443512 4.2731085
17.570667 -0.53198051 4.5063524
13.704718 1.0395541 4.5109825
13.680959 0.93669319 3.5306673
17.632519 0.021139145 3.9089718
17.580635 0.79304504 5.5411434
13.691238 1.4907951 3.3613248
17.578257 1.0986786 5.5466633
17.580481 0.78589153 6.1523304
5.9697905 0.028640747 3.1852329
4.2342448 -0.08999896 3.1401267
13.655994 2.3351784 3.857899
13.65736 -0.069632053 3.4439397
11.897539 -0.60487461 3.2630579
13.697334 1.5238185 4.7942891
12.381048 2.2441168 3.6442766
17.639109 2.1097422 3.5242052
17.613237 0.55124664 3.9659104
17.610073 -1.0243435 3.842051
13.710415 1.7570357 4.0568895
8.8721199 0.20390272 3.2221828
13.637545 2.2457237 3.5369239
17.586729 -1.0782375 3.5386972
11.377048 2.2622352 3.4688599
13.695572 1.3444982 4.465827
13.717921 1.5842705 3.8487954
13.711391 1.135448 4.5126944
17.565306 -0.97978687 5.0557518
12.86705 0.18871975 3.2920723
17.596561 -0.78850555 4.4522629
13.704569 1.4951534 3.5720015
13.709313 1.1283269 4.2569194
5.3979616 -0.066884518 3.159719
17.608957 1.032588 3.718986
13.704634 1.0512395 4.1965532
17.565567 -0.50664997 4.8089981
17.593773 0.024333 3.607156
17.615803 1.1152811 4.3285284
12.886305 0.038852215 4.6073198
15.366057 -1.0894356 3.3219409
17.615192 1.1573 3.9228969
17.612993 1.2134981 3.7207189
17.628429 1.1549425 3.4162583
13.712891 1.061861 4.7482677
12.596631 2.235364 3.6391282
12.348097 0.16041756 3.2841716
13.10791 -1.003458 4.5295157
10.499025 1.3288655 3.2674959
13.726511 0.99187899 4.7479372
12.989891 0.43810177 6.2230492
13.632147 -0.10961199 4.8025227
13.701366 1.2135863 3.8056784
12.348801 -0.42019558 3.2767739
17.59153 -0.92617798 3.5412028
12.960708 0.66129637 6.2234201
5.957407 -0.021034956 3.1867502
8.8160677 0.47872639 3.2278185
13.650312 -0.056553841 3.4821219
13.69342 1.4524999 4.7927732
12.045565 2.2533541 3.8613782
17.640055 2.0183659 3.5237086
11.387354 1.0833111 3.2759686
17.593292 -1.1432667 3.8401201
8.8760424 0.14555788 3.2214918
17.612263 1.1182842 4.0236568
13.085766 -1.0133252 4.3040285
17.595592 -0.37229061 3.9033854
13.708626 1.5098329 3.8482881
17.568373 0.19971466 5.174861
17.43668 1.0815821 3.3704407
17.603436 0.1846714 4.8213177
13.680502 2.1841259 4.0701551
17.602039 1.1107483 4.6324463
13.105919 -0.95914125 4.5300608
17.610748 0.90954781 3.7176926
17.583138 -1.2324429 3.8386371
13.707668 1.8487449 3.3772697
17.581316 -0.64686203 4.2020397
17.607616 1.217576 4.990797
5.9110522 0.46348763 3.1904824
5.9564753 -0.068758965 3.1867023
17.60808 0.60276222 4.017458
8.8906708 0.10249996 3.2199852
13.086994 -1.0428071 4.3036146
13.715899 1.5552936 4.3216839
17.581316 -0.64686203 4.2020397
17.607616 1.217576 4.990797
13.711882 1.1423573 3.8049808
12.881216 0.058535099 4.8279572
17.605793 1.2778521 4.9916792
13.697072 1.3823538 4.7917724
13.609356 2.9974031 4.5756016
17.618729 1.0419798 4.3019552
11.378201 1.1206965 3.2765303
8.8906708 0.10249996 3.2199852
16.407549 -0.39492607 3.3415227
17.617874 1.0299501 4.0226736
12.87212 -0.09475565 4.8248758
13.681417 1.2020526 4.4632139
13.723583 1.4178157 3.8474844
12.883053 0.078874111 3.2900825
15.303647 -1.1382656 3.3234258
17.601147 0.80161667 4.932209
17.603676 1.0219946 4.6312227
8.6558285 3.1061282 3.3639426
17.59288 -1.3174782 3.5343008
13.676339 1.8151884 4.9571486
7.5989227 0.041921377 6.1277437
17.565147 -0.39018345 5.1139984
17.612553 0.20107651 3.6091113
13.756821 1.9243908 3.61272
17.588785 -0.72680664 4.1498547
17.56773 -0.67124176 4.5041742
4.552309 -0.16455007 3.1459851
13.551254 0.32856035 3.2985046
17.59288 -1.3174782 3.5343008
17.572424 -0.71112061 4.5037432
13.718849 1.6861348 4.3519583
17.569242 -0.28144932 3.9047234
12.869576 -0.082785606 3.9451814
12.896391 -0.094721317 3.2873459
13.705172 1.0466518 3.8041911
7.5901775 0.37608027 3.2025568
17.594755 -0.45879936 3.6002963
17.568756 0.66466331 6.1483164
17.613903 1.4755907 3.4690683
9.938385 0.22812939 6.1726108
11.884829 0.72821999 3.2782254
17.594151 0.40181541 4.2173271
13.696356 1.3116994 4.7904892
17.644558 1.8971481 3.5229268
11.356792 1.0406461 3.2776961
8.3115416 3.8541126 3.8293295
17.599457 -1.2281265 3.5357826
17.659771 2.5585299 3.6956286
17.574284 0.58593559 5.2320547
13.713915 1.3336329 3.8334193
17.646801 2.5462236 3.5258484
17.558331 -1.1620159 5.0527477
13.551254 0.32856035 3.2985046
5.956141 0.06645298 3.187057
13.717348 1.3583503 3.5709639
13.103444 -1.0917115 4.5280132
13.651396 -0.13832426 4.4133425
12.860758 -0.030925751 3.2899265
13.626233 2.4232721 3.8541658
17.572548 -0.68170357 4.7901106
13.711456 1.6107497 3.3768177
17.590094 -1.3424797 3.8367152
17.613377 1.1609793 4.6844931
17.589613 1.7288246 6.1753802
17.609522 1.2640285 3.467586
17.606836 1.1785116 4.9643335
13.105755 -1.0475903 4.5287676
16.39547 -0.33673954 3.3428071
10.649288 0.7054348 3.2580695
17.568678 0.38538551 5.1778579
11.362534 0.96444273 3.2772326
13.720131 2.1235471 4.2690172
7.6230545 0.028617382 3.198288
17.593199 -1.3825502 3.8360062
17.593288 -0.73638725 4.7570529
13.111573 -0.99228668 3.857311
13.001569 0.28421974 6.221561
17.165169 1.6748862 3.3832273
3.1150451 0.21607971 3.8978894
11.920699 -0.88617086 3.2567105
17.612963 1.2579536 4.075716
12.869593 0.046979427 3.9469366
10.894901 1.2628694 3.2726989
7.5845985 0.11760592 6.1258607
13.699265 1.2416062 4.7894564
17.609392 0.43269062 3.9644008
17.618576 0.96337605 4.3266096
11.393396 1.0068808 3.2755146
9.8309317 1.3289914 6.1904607
17.619007 0.96685028 4.0219431
17.576769 0.6724968 5.5385876
13.07962 -1.1748519 4.3013353
13.694326 1.0466652 4.4477539
17.580711 0.67639542 5.234066
17.556305 0.07968235 5.1720815
17.562733 -0.29026604 4.5096526
17.582912 0.4625597 5.5354509
15.35393 -1.2446361 3.3194404
17.599236 0.68122578 4.9301963
4.2336297 -0.16249013 3.1404552
17.598007 0.96069908 4.5962758
13.669363 -0.11339092 3.4163451
13.622658 -0.20779181 4.4112291
7.5984378 -0.084340096 6.1238203
17.564205 -0.53136635 5.0621052
17.614765 1.1007519 4.6836624
17.579956 -0.78545284 4.1871195
17.614597 1.0973959 4.989255
12.413118 -0.68331289 3.2691092
17.618063 0.80991364 4.3245645
12.749992 -0.011813641 4.817193
17.616608 0.7833271 4.0197368
17.601648 0.42269707 4.0151253
17.576878 0.46607399 5.2302656
13.07962 -1.1748519 4.3013353
7.5984378 -0.084340096 6.1238203
12.413118 -0.68331289 3.2691092
13.66465 0.94847202 3.8036504
17.599838 -0.5285244 3.5732822
17.613461 1.1675577 4.0746841
6.6448073 -0.017745972 3.186388
10.760349 2.2997084 4.2434235
5.9783678 -0.10570049 3.1836221
13.690933 1.1780424 4.7878208
13.709789 2.0542083 4.327672
17.601673 0.33956528 3.9631796
11.384134 0.94144869 3.2759223
13.714629 2.0378485 4.0491138
16.466833 -0.53408051 3.3372984
17.593544 -1.3773203 3.5331843
13.647467 2.3298926 4.5512466
13.707594 1.2139492 3.845871
13.652271 2.2793207 4.2887468
17.552706 -1.2814655 5.0507317
5.9624739 -0.081122875 3.1858506
13.694959 1.1671495 3.5704074
17.605042 0.61209965 4.2203331
17.605495 0.8987112 4.6295023
13.704067 2.1603975 4.010519
12.883799 -0.1598115 3.287148
17.560867 -0.59618282 4.8074312
7.6034193 -0.10935473 6.1246858
13.680171 0.94278955 4.5084724
17.603685 0.982687 4.3769312
13.704418 1.6827283 3.3772316
17.61598 1.1743383 3.4666843
16.441904 -0.61724424 3.3368797
12.396046 -0.72439528 3.2693028
17.612932 0.98001003 4.6817961
13.694611 1.1472344 4.7875261
11.395502 0.89150524 3.2751346
17.614315 1.8153434 3.7258682
17.62089 0.99091625 3.7685573
13.722208 1.1595497 3.8453078
7.6034193 -0.10935473 6.1246858
17.603685 0.982687 4.3769312
11.855978 -1.1215539 3.2555833
17.589296 -0.30443382 3.8533063
13.010578 0.1742692 6.220787
12.917477 -0.28903198 3.2837014
4.5397348 -0.15117621 3.1483622
11.906893 -1.0051179 3.2551432
17.605885 -0.57819653 3.5982752
17.618824 1.1077719 4.0740356
17.568062 0.54432964 6.1458225
12.869255 1.268784 6.2250905
4.9191489 -0.12905264 3.1548948
10.645401 0.40186405 3.2568841
17.606873 0.28483963 4.198885
7.597949 -0.021285057 6.1254945
13.188104 -0.94397306 3.4085867
13.640446 -0.13856268 4.6335588
17.623238 0.90353775 4.3259292
11.395502 0.89150524 3.2751346
13.639519 -0.13890743 4.3545561
13.098562 -0.74676371 4.3462324
12.731633 -0.049404621 4.379673
17.581659 0.52632618 5.231627
13.719606 1.1124616 3.8448977
4.0610757 0.69558251 3.1500325
13.510149 0.18988752 3.2990234
12.314198 2.2623353 3.9663825
15.450598 -1.3024378 3.3145814
17.598045 0.82327938 4.6027422
7.5686545 0.44853115 3.2045932
17.617579 0.69696331 3.7152958
17.590286 -1.5566769 3.5298662
13.597616 2.2263055 3.853404
17.583143 -0.25683403 3.6527483
13.711229 1.1170697 4.4730487
17.619926 1.0408716 4.6830034
17.590204 0.3351593 4.2662992
17.625622 0.93115425 3.7678809
13.719606 1.1124616 3.8448977
13.516081 0.14470005 3.2982507
17.590286 -1.5566769 3.5298662
13.639127 -0.14589834 3.9463019
17.595064 -0.663311 3.5799029
17.623978 1.0479727 4.0733776
17.567013 0.45411682 6.1439304
6.6493645 -0.12479305 3.1851649
15.529303 -0.91201973 3.3188696
17.610153 0.68920422 4.3227615
13.697221 1.0538845 4.7860947
17.608532 0.68275452 4.0184565
17.605747 0.27663994 3.9827094
13.098085 -0.75033665 4.5696173
17.592495 -1.502295 3.8338876
17.566689 0.34571075 5.2275171
9.8522501 1.1795616 6.1881819
17.59412 -1.4671202 3.5314903
17.63493 0.94442654 4.7843008
13.696596 2.1843319 4.547327
13.674707 0.93685389 4.4297514
13.101759 -0.74327087 4.1227131
13.724791 1.0662894 3.8444424
13.659421 -0.12841654 3.7136879
12.902784 -0.22431707 3.2853322
5.9603691 -0.14476037 3.1857486
17.589413 0.4705286 4.926322
7.5873446 0.42574072 3.202785
17.571369 -0.79440117 4.7850723
17.612946 0.86307526 4.3755684
13.711133 1.672574 4.7978382
12.878326 -0.091589451 4.604897
17.610119 0.85582924 4.9850588
17.644371 1.5026112 3.5203357
17.616676 1.2853127 4.3812704
17.55389 -1.3713522 5.0495949
17.614239 0.85965538 4.6800728
6.6347847 -0.15754414 3.1866088
13.095352 -1.1161156 3.4088933
13.697221 1.0538845 4.7860947
11.340661 0.80847597 3.2780776
17.605206 0.94583321 4.9862099
17.622169 0.87078285 3.7672613
13.724791 1.0662894 3.8444424
17.598124 -0.66804314 3.8818724
17.612946 0.86307526 4.3755684
17.610119 0.85582924 4.9850588
17.595123 0.67366219 4.6004658
11.313042 2.2787323 4.4571972
13.600166 2.2325692 4.4844761
12.899832 -0.35399866 3.2836599
13.085279 -1.0168724 4.0804129
13.721523 1.6299238 3.4543502
13.655487 0.99871254 3.3368583
17.614239 0.85965538 4.6800728
6.6347847 -0.15754414 3.1866088
9.9571552 -0.021931648 6.1706791
15.546306 -0.99270058 3.316772
17.627907 1.0516758 3.7691269
13.706219 1.0080676 4.7858949
13.134192 -0.98580265 3.4098892
13.695604 -0.21005535 4.6486998
17.610544 1.0535707 3.4657907
11.340661 0.80847597 3.2780776
13.702322 1.2500587 5.1852813
17.643078 1.888607 4.7992649
11.142788 2.0491557 3.2864962
13.726946 2.1057725 4.5514956
17.618488 1.2250891 4.3805304
17.622169 0.87078285 3.7672613
13.701972 1.017117 3.8441157
13.705443 1.2600155 4.5338593
13.706646 -0.19664431 3.7120385
17.562622 -1.4617958 5.0489707
5.9460998 -0.18340111 3.1873462
13.101666 -1.1579976 4.5269651
9.8962851 0.74623251 6.1799345
17.554905 -1.5812664 5.0468626
17.581944 0.26310444 5.1768675
17.579805 0.16245174 5.5300713
17.583775 0.48729134 4.5216951
17.601307 0.80212975 4.3744392
17.598515 0.79480648 4.9833622
17.642921 1.441946 3.5199165
17.587002 -0.45373058 4.8621302
15.002872 -0.20042801 3.8633633
13.05172 -0.25998449 4.3887529
17.606598 0.79893875 4.6788387
6.6434903 -0.17862225 3.1853948
4.9112883 -0.23719001 3.155724
13.706219 1.0080676 4.7858949
11.388446 0.7753849 3.2751634
17.566193 -0.60087872 5.1109791
17.61451 0.81017017 3.7666655
13.701972 1.017117 3.8441157
17.625151 0.83070087 3.6161346
17.585348 0.33103371 4.5697851
17.601307 0.80212975 4.3744392
17.598515 0.79480648 4.9833622
17.587002 -0.45373058 4.8621302
17.605522 -0.44355392 3.8767462
13.021659 0.02020359 6.2196355
17.619501 1.9615107 3.777328
6.6002827 0.59387255 3.1897862
17.615345 0.95697594 4.0722189
17.572611 -1.6916599 4.4376025
12.886366 1.1380019 6.223907
17.601482 2.6521292 6.2025213
17.660292 1.8079271 3.5220275
17.625622 0.93115425 3.7678809
12.376588 -0.7514596 3.2698579
17.567419 0.36403561 6.1422734
13.683593 2.388772 3.6152844
17.596485 0.56093502 4.9281483
13.081734 -0.80869389 4.5679049
7.3198786 1.672159 6.1441655
13.7045 2.0497971 4.8446407
13.081245 -0.8711648 4.3437481
17.583302 0.37253666 5.5339355
16.260601 -0.28391123 4.7906656
13.647587 -0.073065281 3.6766615
13.077109 -0.86733723 4.1203423
17.575874 0.4060564 5.2292032
17.546791 -0.25910854 5.1661773
17.472561 0.95558929 3.3682117
12.554338 2.2792816 4.2962809
12.889532 0.063824177 4.2041731
9.9434299 0.12801552 6.1710997
14.962351 -0.22461462 4.1628075
15.527612 -1.4122949 3.3094087
17.646114 1.5936708 3.520946
7.589262 0.31421661 3.2026522
17.55489 -1.0988712 5.1031456
17.613094 0.54686165 3.713625
17.580009 0.55250263 5.5367546
16.387178 0.99609852 3.3580317
17.585098 0.60722351 4.5234566
17.607683 -0.37601471 3.6506462
17.610783 0.93968201 4.6811047
17.585611 1.0034971 6.1576519
17.609224 1.5890312 6.1744022
17.613369 1.1139345 3.4662418
13.679932 0.97302198 3.3755565
17.558662 -0.28590488 4.2070246
17.600288 1.5138311 3.4197416
13.621485 2.3769703 3.3800988
12.075941 2.2488799 4.4747562
17.555935 -1.1388006 5.1026716
12.374244 -0.8895359 3.2674522
17.597256 -0.50322723 3.8758721
11.211014 1.8301406 3.2841992
17.616106 1.1645126 4.3796711
17.546921 -1.5207524 5.0471244
17.592333 -0.78680992 3.5952108
12.913914 -0.01036644 3.3249412
10.630636 0.1153059 3.2555809
17.595093 0.40338039 3.3928547
13.083462 -1.1088362 4.3024817
13.667772 0.93910313 4.7434416
10.509819 1.1635566 3.2672639
12.869884 0.051514149 5.0842485
17.577599 -1.6510706 3.8312504
17.579834 0.15433884 6.1400571
12.864679 0.054226398 4.8632278
17.58593 -1.6462331 3.528219
17.605541 1.1032743 4.3785844
13.694888 0.96977091 3.8437057
17.497261 0.87809372 3.36672
14.954706 1.1563673 3.3243828
12.889877 -0.41882658 3.283205
13.107068 -1.2912931 4.5253119
12.562625 2.2787223 4.7724247
14.06587 0.73209763 3.3170314
17.578394 0.14017582 5.1746559
17.581161 -1.7357583 3.5265541
17.638847 1.7527051 3.7755148
17.60931 0.68254185 4.3730211
11.328932 2.290544 3.4705772
17.595083 0.17913055 4.3153777
4.90909 -0.023597717 3.1565924
17.577019 0.054917336 4.6159787
12.959571 -0.070431709 4.646266
11.384378 0.69826221 3.2750778
6.6434903 -0.17862225 3.1853948
13.691977 0.97771835 4.8629799
17.626495 0.69092846 3.7652154
13.679674 0.92169619 3.843328
13.705347 1.9288111 4.4053416
17.60931 0.68254185 4.3730211
11.831758 -1.2390552 3.2543795
17.615179 0.86942005 4.8838468
11.380062 0.8512516 3.2759173
17.580856 0.062777519 3.3891571
17.599518 -0.31636524 3.6516423
17.608438 0.83622169 4.0706959
13.68437 1.4596004 5.1880932
12.72283 -0.033802509 4.6329279
7.6174202 -0.13323522 3.1975558
15.52046 -1.2015882 3.3138642
5.3956151 -0.19514751 3.1594679
17.61451 0.81017017 3.7666655
10.96401 0.58639193 3.2674222
17.568584 0.24399662 6.1402068
13.690922 2.2943034 3.6150229
17.605677 0.53071785 4.0165319
17.616909 0.84389782 3.4636762
17.577629 -1.0896769 3.8921542
11.384378 0.69826221 3.2750778
17.583012 -0.37676907 4.2061124
10.910807 1.0614004 3.2718992
17.58968 0.1668272 5.2263999
11.183442 1.9216871 3.2851639
17.590868 -1.0852156 3.5902336
13.578959 2.2183242 4.5621514
13.722328 1.9022021 4.5442619
13.378363 1.3180485 3.3128412
17.580656 0.26640797 5.2273035
11.862967 -1.301105 3.2512312
17.489613 0.81796551 3.3664141
17.610565 1.2914801 4.8902664
6.6394501 -0.082416534 3.1866407
13.103565 -1.2245531 4.5260992
17.611732 1.7571507 3.4208972
17.598831 -0.36784458 3.6015742
17.605015 0.6222496 4.3720827
17.596607 0.7044735 4.9818006
17.604404 1.4142113 3.4688749
17.540453 -0.43106747 3.3495512
15.344449 -1.0365758 3.3237543
11.419901 0.66341114 3.2728324
13.606605 2.2309361 3.3810401
17.602802 0.55004406 3.4112892
17.589352 0.17490673 4.6182489
17.605015 0.6222496 4.3720827
17.595264 0.55366421 4.5987287
12.327295 2.2562456 4.0380363
17.607306 -0.57533455 3.8662381
16.452183 0.61026144 3.3523178
17.57506 -0.39392662 4.862349
17.584879 -0.93576145 3.5928845
17.614698 0.74656773 4.0696449
10.636677 -0.02589941 3.2537568
17.579576 -1.7823124 4.4364004
17.645306 2.3102002 3.6945033
17.651398 1.6852741 3.5214489
17.61063 0.74989605 3.7660284
13.083374 -1.241384 4.3004208
17.574287 -1.806324 4.1320529
14.075764 0.80440283 3.3171229
17.597342 1.3038568 4.7364588
17.581802 0.38024616 4.9244757
12.866125 -0.078888416 5.0817523
17.588371 -1.7718744 3.82899
17.559708 0.033771515 6.1353416
12.868879 -0.075815201 4.8614879
17.588331 -1.7963037 3.5251937
17.593575 -0.38049126 3.9531603
17.649883 2.2337193 3.70257
13.637085 -0.18514109 3.6355736
13.0725 -1.0212798 4.1178074
13.531258 0.41860294 3.3002956
12.895975 -0.50525188 3.2815657
12.873743 -0.066707134 4.2019606
17.578262 0.17050076 4.9210391
14.952269 -0.21038485 4.9323988
13.100203 -0.87921286 3.451355
14.037497 0.63477898 3.3175244
14.974585 -0.2081852 4.4413624
13.282648 -0.03965807 3.6836486
17.552385 -0.89945316 5.1057405
13.019262 0.35154104 6.2263575
17.613937 1.2818499 4.686305
17.623886 1.0419979 3.8873808
17.652256 1.3522091 3.5189991
17.569466 -0.79070091 4.5024471
14.974359 -0.17733717 3.6931996
17.592991 1.3065891 4.4320045
17.577219 0.27022743 4.9225082
17.599838 -0.64452457 3.6466813
17.60788 0.27801991 4.2965989
17.599644 -0.43568802 3.6498823
17.611153 1.3115664 4.1280074
17.606462 0.65602398 4.0684395
13.679581 1.317697 5.1845808
15.503168 -1.3581181 3.3114467
17.626495 0.69092846 3.7652154
10.995043 0.46032381 3.2648046
13.716827 2.1318955 3.6141667
17.611691 0.69362831 3.4623086
17.582848 -1.1994514 3.8903155
10.924376 0.88038111 3.2708764
11.218686 1.7927971 3.2839844
17.588095 -1.1945982 3.5883689
13.122152 -0.044370651 4.8440495
17.608419 0.92288971 4.3762546
13.398109 1.1835833 3.3114767
3.1497061 -0.33343649 3.115643
17.527588 0.73120213 3.3643465
17.549725 -1.7610002 5.0441628
12.872276 -0.59130812 3.2813854
6.6464748 -0.21065784 3.1847305
5.9765825 -0.27760577 3.1823978
17.586082 0.46399975 4.5970545
13.082122 -0.89547157 3.4135585
14.02276 0.56252432 3.3175743
17.619774 0.3442564 3.6601849
17.611912 1.6057978 3.419992
16.388672 0.85677862 3.3568311
17.633545 1.6306906 3.7745395
16.235081 -0.24086142 4.463799
13.645277 2.3321471 4.0750275
17.610706 0.73908615 4.678134
17.620571 0.12155247 4.2946777
17.587521 0.87987709 6.1552248
17.417233 -0.72577953 3.3489709
16.403437 -0.45037222 3.3408394
14.966585 -0.1553359 3.7366295
17.618713 0.12929249 4.5177555
11.935873 -0.94672108 3.2546802
17.576504 1.3115978 5.2448368
16.24283 -0.24478436 4.7430596
11.831114 -1.4378219 3.2498076
13.724713 2.1084375 4.0740824
5.9769325 -0.29666948 3.1821313
13.606872 -0.17811823 3.7527709
17.417233 -0.72577953 3.3489709
13.606075 1.0554824 3.6116772
17.606482 0.75921917 3.9684429
2.442668 -0.35404921 3.0930858
10.654814 -0.22002363 3.2502685
17.61702 1.2517834 4.1273808
17.568943 -1.9317126 4.4336977
17.617577 0.1203022 3.9806557
5.3942504 -0.28897524 3.1588621
17.614212 0.6301899 3.764627
17.580009 -1.9270129 4.1300445
9.8661118 1.0460925 6.185308
17.600826 0.38275909 4.0146008
14.930136 -0.1848321 5.7900305
17.589706 -1.9221864 3.8261614
10.014707 2.2714267 5.2192278
11.231401 1.6981831 3.283761
17.582108 -1.9158301 3.5228906
17.651623 2.098074 3.6759634
12.783792 0.8075242 3.3012111
13.076994 -1.1651201 4.0904136
3.1422067 -0.34279156 3.1177902
13.711157 1.7500758 4.2841702
13.54483 0.25984001 3.2981174
6.6749058 -0.26356268 3.1808081
9.9667997 -0.1554451 6.1700702
13.647972 2.3349304 4.3687305
15.555639 -1.6252952 3.3038559
7.6090488 0.10232973 3.2001004
14.049921 0.51699162 3.3159742
17.587839 -0.25868416 3.5775037
17.566948 0.092295647 4.2624397
17.621761 1.0780087 3.5173979
13.077602 -1.1616144 4.5626049
16.422667 -0.78357649 3.3348441
14.979029 -0.22780704 3.6924219
14.932285 -0.22816896 5.2742043
2.4427676 -0.36077559 3.0929904
5.392199 -0.3230691 3.1587858
17.551851 -1.8814063 5.042757
17.575075 -1.7875295 4.7408915
17.608028 0.4501543 3.7625415
13.069317 -1.1533298 4.1156063
6.6902103 -0.30634403 3.1784925
17.577019 0.054917336 4.6159787
17.621761 1.0780087 3.5173979
13.077602 -1.1616144 4.5626049
14.932285 -0.22816896 5.2742043
13.010636 -1.1174541 4.7825098
17.598461 -0.72225475 3.8469577
11.27656 1.5320721 3.2818499
14.9395 -0.23271894 4.8890524
14.964239 -0.21680737 4.5049105
17.599396 -0.49534988 3.6489882
17.60675 1.1904974 4.1265421
17.605427 0.5360651 4.0669026
12.882513 0.026932716 4.3500786
13.715962 2.0434031 4.6858149
13.703909 1.035933 4.3146257
16.013035 -1.152791 3.3428583
17.615326 0.54036999 3.7635593
10.540739 0.92435789 3.2654469
17.612854 1.1845417 4.7353873
17.609898 0.54381943 3.4607677
17.570686 -1.3582296 3.8876076
13.705178 2.7088275 3.3755424
17.581596 -1.8783278 4.7399158
11.25902 1.6064219 3.2825894
17.571945 -1.3530855 3.5858078
11.393757 0.75035715 3.2747524
13.408565 1.0480266 3.3104172
11.859939 -1.1814795 3.2540696
17.548786 0.61623383 3.362504
13.104515 -0.72255945 4.3838944
17.620724 1.0507507 4.8870096
6.6902103 -0.30634403 3.1784925
7.599122 0.24065113 3.2015672
14.997099 -0.18250608 3.4431205
13.499441 -0.082801819 3.2963414
17.579849 -2.0057445 3.5210705
17.581154 -2.0960727 3.5191412
2.4399419 -0.22540891 3.093173
8.6632862 3.0875571 3.3901668
17.581284 1.42381 6.16675
17.622799 1.0179501 3.5168257
3.1288857 -0.15469408 3.1211324
12.335451 -1.0864058 3.2656264
17.592106 0.38779259 4.6046147
17.584793 -1.4734273 3.583353
6.6115484 0.48247528 3.1895328
13.107958 -0.74471283 4.3836942
12.893442 -0.7212863 3.278131
