# .PCD v0.7 - Point Cloud Data file format
VERSION 0.7
FIELDS x y z
SIZE 4 4 4
TYPE F F F
COUNT 1 1 1
WIDTH 1549
HEIGHT 1
VIEWPOINT 0 0 0 1 0 0 0
POINTS 1549
DATA ascii
-4.8734579 3.6562524 1.1276923
-3.653492 4.2526975 1.1237394
-8.462822 2.1378853 1.1440071
-2.9243126 4.3229752 1.1221877
-2.0924103 5.3499031 1.1161466
-1.8264939 6.5298505 1.1168875
-1.8608785 6.4396362 1.1151857
-3.7557325 4.1512961 1.1231533
0.15389381 5.5937409 1.1971965
-3.7686687 4.6886687 1.1322999
-8.954915 2.0635777 1.1494626
-1.3900458 7.3251214 1.2188618
-2.7798722 5.5667472 1.1182107
-1.5234299 6.1224504 1.1153575
-5.1969776 4.6971502 1.142179
-0.25567359 5.5457778 1.1020402
-0.4590551 5.5871677 1.1006386
-3.7963147 2.9908719 1.1087828
-2.1229036 5.2497849 1.1162379
-1.9342879 6.1591091 1.1155102
-3.8525403 4.0693998 1.1234062
-0.64615196 5.5450072 1.1004618
-3.8455448 3.0846903 1.112501
-3.170964 4.3688092 1.1253744
-3.7743232 3.0268266 1.110328
-3.1845632 3.8947613 1.1214472
0.987688 4.6927333 1.5328926
-3.7310634 4.7397966 1.1302364
1.0379111 4.6413679 1.5525087
-0.24279429 5.6503596 1.1032341
-3.7633541 4.2597594 1.122915
-0.18608788 5.6912212 1.1042435
-1.4904913 6.253119 1.1166054
0.0023684527 5.7528081 1.1981146
-3.071383 4.0551519 1.120738
-1.8150229 6.6090107 1.1152737
-3.0270991 4.1237226 1.1210988
-1.7820215 6.6641016 1.118549
-1.7709231 6.7575312 1.1174492
-2.9490397 4.2380571 1.1234959
-2.2855489 4.087337 1.1146998
-1.3877912 6.7528667 1.1187098
-2.8973069 4.3613963 1.1231544
-1.9298948 7.1296911 1.1185207
-2.1725781 4.2553673 1.1126683
0.65054786 5.0644002 1.3885676
-4.6234646 3.0652747 1.092482
-2.1272032 4.3392396 1.112273
0.84329462 4.8527861 1.4752342
-2.0945342 4.3815622 1.1133685
-2.0611613 4.4423242 1.1127499
-1.3210251 7.1423283 1.1187174
0.90112495 4.8035393 1.4834923
-1.3245198 7.288672 1.1708144
-2.8154726 5.0260448 1.1195235
-2.0171194 4.5403986 1.1129446
-1.2449147 7.2112722 1.1490251
-4.7293477 4.0207105 1.1294975
-8.4643297 1.9296427 1.1467485
-1.1820776 7.2160273 1.1480303
-4.6511765 4.0535927 1.1294852
-1.9770776 4.6514001 1.1119094
-2.8767836 5.1242065 1.1209831
-7.7551951 1.8241528 1.1404421
-1.7759875 7.6793251 1.1233908
-7.6244717 1.8453315 1.1391647
-6.9589658 2.6534917 1.1353105
-3.5520909 5.556313 1.1320951
0.29224816 5.5157447 1.314587
-7.5750542 1.8652656 1.1367697
-1.4836586 6.3554912 1.113111
-8.2118778 1.7607454 1.1448594
-8.2717342 1.8963428 1.1453378
-6.6249156 2.7108192 1.1321325
-6.5627627 2.7301297 1.1293432
-3.4442282 5.7484417 1.1259471
-8.1504564 1.9221483 1.1436621
-6.4609694 2.7490191 1.1289294
-4.4263592 4.2240105 1.1274596
-0.68301964 4.6601958 1.1009135
-4.3684578 4.2733874 1.127303
-2.5069823 1.6888796 1.3527237
-2.5342162 1.7374514 1.3857396
0.36722851 5.3776708 1.2741961
-4.3334317 4.3285227 1.1249176
0.3132492 5.4216318 1.2631906
-0.57380193 4.8590951 1.1019332
-4.2640996 4.3792591 1.1243649
-6.0529337 2.822237 1.1264685
-0.53552425 4.9509978 1.1004103
-0.47934622 5.0571485 1.1010976
-5.4532199 2.5115933 1.1227391
-4.1385379 4.4243288 1.127625
-5.4946818 2.4933538 1.1244187
-0.43425131 5.1573701 1.100883
0.030807553 5.7283554 1.2086706
-5.7051334 2.908 1.122269
-0.47659418 5.2951174 1.1004713
-3.6340699 3.5187411 1.1201957
-5.6481261 2.9204266 1.1219918
-5.5447106 5.1492352 1.1447275
-0.45729274 5.3513689 1.1000519
-0.34602371 5.3459339 1.1017704
-0.39276114 5.4788446 1.1008061
-3.5537558 3.5655963 1.120548
1.0905354 4.5724945 1.5745605
-8.5633965 1.8323168 1.1466559
-1.9753909 5.3540716 1.1124179
-8.4250603 1.8585773 1.1469752
-0.2870667 5.7875705 1.1008203
-4.1292906 3.6201584 1.1217456
-0.23284738 5.8705173 1.1020758
-2.4050879 4.0953493 1.1117532
-0.22433752 5.9536724 1.1004881
-2.4543238 4.1764855 1.1145315
-0.16743982 6.0375805 1.118449
-7.6429 2.0234609 1.1420037
-2.3860359 4.1697011 1.1121215
-8.2368088 2.4447575 1.1434792
-2.2168179 4.6302609 1.1130435
-2.3634729 4.2651639 1.114305
-6.8062601 1.9601885 1.1354283
-4.8438091 3.138694 1.1164085
-7.5578504 2.298593 1.135941
-2.2074594 4.2019868 1.1125224
-6.870502 2.1703966 1.1363784
-0.59879553 5.5552578 1.0963533
-6.7731929 2.2155817 1.1326221
-6.6659584 2.2307143 1.1328753
-4.6466503 3.2356031 1.1188401
-8.6570396 1.7997088 1.149189
-1.7127199 6.2280102 1.1117692
-6.5642114 2.0208454 1.1308436
-4.4427271 3.2709055 1.1212764
0.91289622 4.7859645 1.4938464
-1.743724 6.1409006 1.1115948
-0.32371885 5.7349391 1.0973815
-8.4685602 1.7360463 1.1443521
-4.3506908 3.2695262 1.1216528
-3.3518822 5.1610231 1.1300062
-4.2355289 3.2393906 1.119458
-3.39836 5.0808301 1.1315479
-4.2564287 3.1790857 1.1168356
-4.340939 3.1891758 1.1166869
-1.694083 7.0380526 1.121484
-7.0317373 2.1592412 1.133862
-1.6417474 7.2472148 1.1197995
-6.4753289 2.0379353 1.1302848
-3.3149202 4.7191968 1.1236583
-4.3866873 3.0834694 1.1160316
-4.4551458 3.0467355 1.1155137
-3.3704686 4.6610351 1.1227727
-1.879227 7.246645 1.1213747
-2.812567 4.8222842 1.1174732
-7.3202028 2.0987759 1.1368468
-7.3795185 2.0847104 1.1363578
-3.4037402 4.6069236 1.125182
-3.4493172 4.5481215 1.1250197
-8.0618057 2.2022171 1.142045
-4.4440784 2.9518051 1.1181791
-7.3929839 1.8861883 1.1354845
-0.87837791 6.7267351 1.238543
-2.1952374 4.6646614 1.114458
-8.7475643 2.3627291 1.1473793
-3.4708495 4.4732809 1.1257185
0.032418687 5.7311258 1.1837401
0.041471526 5.6560965 1.1816043
-0.9170956 6.7634811 1.2376827
-8.8336849 2.0585589 1.1468197
-4.8605766 4.9573736 1.1375095
-4.6416903 2.8695252 1.1253603
0.05692425 5.4249206 1.1896111
-1.9425145 5.4558535 1.1123947
-0.8419134 6.6954155 1.3050497
-8.8607349 1.8626032 1.1554909
-8.96978 1.8455361 1.1591141
-4.0926461 3.5914431 1.1210444
-4.761198 2.8774571 1.1194952
-4.9856148 4.8891988 1.1362264
-8.960042 1.7473266 1.1906414
-4.0516391 3.6512055 1.1208402
-4.8254762 2.8520055 1.1205842
-2.1732361 6.042439 1.1194295
-2.1935339 5.9751134 1.1190391
-6.2477937 3.2983084 1.1300704
-5.6611037 5.0724254 1.1454065
-0.73943216 5.2402906 1.1006809
-4.9709725 2.7947974 1.1221037
-5.0531144 4.7793002 1.1406854
-0.76236981 5.1386156 1.1019186
-2.2768793 5.7526736 1.1148043
-2.2425902 5.6595607 1.1165104
-5.0643339 2.7810822 1.1214582
-3.6198845 4.0093331 1.1193957
-2.2603743 5.5570683 1.1150898
-6.0185623 2.6072297 1.1234739
-5.042408 2.6173832 1.1183592
-0.061790448 5.8339038 1.2171122
-0.68814832 4.6944828 1.0958775
-2.2903457 5.4718924 1.1144677
-2.3484168 5.4322014 1.1133736
-3.7230089 3.9255922 1.1193471
-5.3011737 2.6895392 1.1234332
-2.3313942 5.3482919 1.1152158
-5.384625 2.6775126 1.1243721
-2.3612337 5.2519236 1.1160957
-5.3488226 2.5310633 1.1234993
-5.9284062 4.8506222 1.1526847
0.32707828 5.4277816 1.2488676
-3.0676978 5.4092522 1.1259009
-3.8366604 3.8246014 1.1205248
-2.470489 5.1449037 1.1133538
0.27684322 5.4615264 1.2621721
-8.0735893 1.7716184 1.1474893
0.1731613 5.5662975 1.3256923
-3.1536672 5.3637581 1.128191
-8.0637589 1.9817297 1.1438532
0.18809389 5.4513359 1.2717578
-5.6515002 2.4315732 1.123018
0.6085127 5.1093068 1.4123979
-1.3854696 6.0588498 1.1113106
-1.3153392 6.3767824 1.1121401
-5.7527542 2.4428511 1.1231043
-3.9480572 3.749409 1.1205323
0.66267174 5.0504274 1.4257441
-5.8733277 2.4238675 1.1217552
-2.5521846 4.8485303 1.1155872
-4.0100799 3.7102764 1.1206083
-5.9366536 2.4074881 1.123035
-2.5845499 4.7483158 1.1155217
-9.1284447 1.841063 1.2219167
0.70972276 5.0037107 1.3878523
-8.3401155 1.7488396 1.1430309
-6.1467724 2.338855 1.1266456
-8.37045 1.8812754 1.1425298
0.65135115 5.0577168 1.3748419
-2.5990832 4.6834073 1.1153865
-6.2563405 2.3217371 1.1272385
-1.556155 6.0351915 1.1126115
-1.6469625 7.6649046 1.1446909
-2.6436195 4.654985 1.1175106
-2.6343174 4.5534658 1.117661
-9.1185532 1.8722255 1.1748248
-6.2457786 2.2788267 1.125995
-4.9510846 3.9206009 1.1308165
-6.3415761 2.2658074 1.1291153
-6.4572902 2.2478797 1.1295561
-2.3863072 6.1513104 1.1196462
-6.5482726 2.264029 1.1305318
-1.2477834 7.2601275 1.1447896
-4.256649 3.5283787 1.1221075
-1.7801802 5.7693834 1.1158723
-2.6561952 4.4376154 1.1205374
-7.8533158 2.7398429 1.1432841
-4.3331971 3.5030103 1.1233543
-1.4461718 7.2467623 1.1210723
-1.4443073 7.3780999 1.3353652
-2.4460564 5.9503503 1.1184361
-7.6541615 2.5164843 1.1419104
-6.9562397 2.1404393 1.1327161
-5.1586752 3.8830421 1.1323117
-3.5520821 4.4610801 1.124162
-0.94601977 6.8247914 1.1852165
-1.8344641 5.5555544 1.1154152
-2.7069802 4.3105145 1.1181214
-2.8226833 4.0385666 1.1166767
-7.1339002 2.1282492 1.1336348
-7.2240114 2.1157813 1.1344645
-2.4990981 1.8059324 1.3449011
-4.4462714 3.4536757 1.1231599
-2.8585939 3.948581 1.117959
-1.2103691 6.8362346 1.1148608
-5.2467275 3.8718338 1.1340594
-4.544188 3.4540668 1.1238052
-0.49532995 5.2979507 1.096717
-1.5019217 6.8267012 1.1199982
-2.9280381 3.8389907 1.1178277
-7.5698066 2.0476241 1.1391759
-2.5329373 1.7084695 1.3676231
-1.5457705 6.7540436 1.116611
-0.44601551 5.1660972 1.0975919
-1.9852345 5.2513003 1.1152785
-7.7368898 2.0118492 1.1402074
-4.6468949 3.4473665 1.1247973
-2.9800768 3.77281 1.1176482
-7.8305168 2.0016019 1.1384894
-1.2906563 6.4746838 1.1135701
-2.0089028 5.2329993 1.1132258
0.022807324 5.8469796 1.1235958
-4.7613163 3.4590261 1.126968
-2.0267551 5.1534948 1.1140935
-0.055822358 5.7514348 1.1185811
-0.53667301 5.1825824 1.0986506
-3.0619111 3.6688879 1.1178217
-0.15941875 5.7647419 1.1030575
-0.50330818 5.0342112 1.0990411
-0.34620422 5.7741289 1.1005991
-4.8683972 3.4627948 1.1215012
-2.0459259 5.0488057 1.1146202
0.94593877 4.7410321 1.5172163
-0.52041405 5.7290382 1.101308
-2.1113715 6.3175015 1.1194438
-3.5847747 2.8909087 1.109845
-3.5879369 2.9221382 1.1082528
-3.0163038 3.7274091 1.1177012
-0.35185614 5.8496537 1.1023835
-1.6506903 6.4622331 1.1122488
-0.52142215 5.2095413 1.0987812
-0.12421888 5.8424444 1.1448454
-0.093587339 5.9124918 1.1356137
-2.5295265 1.8266294 1.3131453
-1.2665926 6.5822082 1.113325
-4.760108 3.5473416 1.1266764
-3.6522307 4.3516679 1.1242808
-1.72305 6.9524231 1.1169471
-2.8670776 4.4404182 1.1239101
-1.9174287 5.5567975 1.1114945
-2.9879675 4.5759459 1.1234474
-2.2548723 3.8863554 1.1124278
-0.43645132 5.454783 1.096596
-1.8917742 5.6554046 1.1100858
-2.1636543 3.952687 1.112257
-1.4883424 6.9300356 1.1178344
-0.40508875 5.5279694 1.0970155
-2.1123574 4.0140686 1.1128167
-1.339079 7.044116 1.1183758
-5.3818603 4.0643225 1.1327747
-1.8269545 5.8416457 1.1124295
-1.7866945 5.9580956 1.1118594
-1.1468924 7.0501456 1.1310505
-2.8455594 4.7550163 1.1200879
-2.0256097 4.1400666 1.1134566
-1.0742702 7.0352435 1.142521
-1.7714411 6.047235 1.1108798
-1.6130785 7.4552808 1.1261673
-5.24575 4.1745143 1.135887
-2.7654805 4.8558474 1.1166708
-1.5576705 7.4610825 1.1242718
-5.1799054 4.1955452 1.1362001
-1.9070725 4.3198957 1.1163498
-2.6476557 4.7403359 1.1174306
-1.6964313 6.2928958 1.1113884
-2.7595448 4.9427443 1.1142242
-1.6756835 6.3408175 1.1137577
0.45228517 5.2621388 1.3335862
-7.65908 1.6609567 1.1407501
-7.658596 1.7923938 1.136306
0.40608534 5.3214312 1.3351837
-1.8162987 7.8937159 1.1564838
-0.35521165 5.9144955 1.0979539
-7.5287104 1.6838906 1.1371107
-6.4591069 2.5116081 1.1286972
-7.555408 1.8178706 1.1387823
-2.653826 5.2450614 1.1146214
-7.4402361 1.6981269 1.1363393
-1.3630474 6.1469531 1.1119627
-9.2524376 2.0302875 1.1988313
-1.3900366 5.9908085 1.1148055
-4.1400785 4.0217247 1.1213768
0.45498812 5.2675467 1.2877988
-1.3353634 6.2668877 1.1126654
-3.2780166 5.7656159 1.129862
-4.9817815 2.192512 1.1208807
0.072723716 5.676755 1.2528927
-4.0326171 4.1005096 1.1202486
-4.8512077 2.227845 1.1190736
0.12607096 5.629961 1.2297697
-4.7417302 2.2678959 1.1167212
-4.6465812 4.558444 1.131525
-2.4361222 5.7397676 1.1183643
-2.4563861 5.8369164 1.1190267
-3.6896369 3.5779142 1.1198997
-6.8573036 3.4828162 1.1385392
-0.28380176 5.2414556 1.1037723
-0.76614422 5.0575686 1.0987306
-0.24548267 5.3430219 1.1016905
-5.1954904 2.9907086 1.1214592
-0.60361713 5.0223203 1.0968006
-3.4539559 3.3578544 1.1164745
-0.19613953 5.4690337 1.1004262
-0.14657821 5.5350227 1.1050172
-0.51660156 5.0172572 1.0963074
-1.7951128 4.5773783 1.1146468
-0.12535676 5.6118913 1.101671
-0.5729568 4.8538003 1.0999597
-2.2653265 3.9451475 1.1127964
-0.092106722 5.7609334 1.1273968
-3.5436494 9.7936916 1.1832273
-0.039276861 5.8485594 1.1220968
-0.063335918 5.9260478 1.1178901
-0.4681347 5.128654 1.0976121
-7.4714527 1.8603835 1.1351502
-0.42848554 5.2348309 1.0965346
-9.5536137 2.8117094 1.1656681
-0.96965718 6.833405 1.2374239
-7.4616914 2.0594299 1.1385618
-2.2011225 4.1942124 1.1137854
-4.5291066 3.0328424 1.1139259
-0.37356046 5.3639035 1.0984126
-6.6925516 1.9872851 1.1324936
-6.6461992 2.0221756 1.1314007
-7.9627538 1.6620921 1.1423494
-4.4311161 3.165884 1.1176333
-0.33559284 5.4318151 1.0973864
-1.9375874 4.2573872 1.116335
-6.5286446 2.0527573 1.1317021
-6.4737492 2.0660086 1.1286302
-6.342483 1.8723906 1.1298653
-4.2423968 3.1580126 1.1202921
-0.29279152 5.5552382 1.0972569
-1.8929664 4.3640399 1.1150271
-1.5065168 7.0522261 1.1210415
-6.955647 1.9454565 1.134638
-4.1706929 3.122417 1.1202009
-3.1740837 4.845891 1.1254214
-6.2907276 1.8974345 1.1272794
-4.1467652 3.0377591 1.1145248
-3.2706673 4.7749782 1.122313
-6.389214 2.0690761 1.1290658
-4.2381349 3.0181968 1.1143457
-6.4626675 1.8610357 1.1291417
-1.706547 7.0344887 1.116918
-4.2712169 2.9526439 1.1143526
-0.35630611 5.645627 1.0972354
-7.1389523 1.9082034 1.1360089
-7.2647042 1.8826492 1.1383052
-4.6902604 5.0827694 1.1370873
-8.6469364 2.3895426 1.1433095
-4.3551297 2.9803667 1.1164958
-7.9795198 1.9543768 1.1430849
-4.2681565 2.8393848 1.1148467
-3.2442126 4.3325982 1.1205118
-7.9304323 1.8088977 1.1418501
-7.9471998 1.7509491 1.1436568
-4.334064 2.8257103 1.1151834
-5.4402275 5.2193227 1.1435683
0.1542189 5.5590553 1.1773554
-8.0691319 1.6501958 1.144486
-4.4271936 2.8285844 1.1099902
-3.3499787 4.2380919 1.1193758
-1.9116825 6.2636638 1.1153946
-0.84345281 6.6827183 1.1938792
-8.7587709 1.74841 1.1495516
-3.0760775 4.9855237 1.1223469
-1.9655793 6.0438261 1.1149222
-4.4828534 2.7683351 1.1153839
-0.64055675 5.4316978 1.1004442
-0.5634895 4.8420386 1.0984235
-3.3529518 4.142354 1.1209452
-2.0071697 5.9113584 1.1132338
-0.83950078 6.6846209 1.23673
-4.5684795 2.7362421 1.1165243
-2.0311463 5.8541384 1.1126155
-3.4594569 4.147881 1.1199747
-3.3914831 3.3920915 1.1165932
-4.6457162 2.7176492 1.1155419
-3.4350812 4.0422688 1.1210957
-2.0565684 5.7441754 1.1140072
-2.0816181 5.6703968 1.1136204
-4.6837707 2.6767688 1.1191056
-2.1132896 5.6355796 1.1102006
-4.7611699 2.6586392 1.1196733
-2.1285615 5.5396929 1.111753
-3.4874711 3.9793165 1.1212672
-2.1527584 5.4421363 1.1128812
-3.5365057 3.925859 1.1218668
-5.2795997 2.2927346 1.1225127
-4.8545775 2.6334624 1.1197398
-5.2615156 2.3428729 1.1210831
-2.1810374 5.3363633 1.1132028
-5.3669119 2.334882 1.1217033
-4.9355054 2.6259127 1.1209077
-3.5826249 3.8812432 1.1220611
-3.6792235 5.9266825 1.1369876
-4.9345064 2.5808792 1.1211013
-2.2199996 5.2558475 1.1115749
-2.2474642 5.1557932 1.1116011
-5.0790486 2.5883963 1.1210738
-3.6508958 3.8320284 1.121685
-4.3914456 4.0954061 1.1304424
-2.2755089 5.040133 1.1132045
-5.1365018 2.5372982 1.1226727
-3.7219555 5.6539612 1.1353689
0.97217995 4.7187061 1.5042493
-5.8824315 2.7902415 1.125236
-5.2670527 2.4867129 1.1229243
-2.3184526 4.9181323 1.1136831
-1.1955276 6.1893144 1.1132648
0.31436116 5.4180875 1.3051034
-1.2448181 6.0679483 1.1082724
0.36544904 5.3672862 1.3320519
0.70850354 5.0019312 1.4200624
0.41076043 5.3186917 1.2802341
-1.2592572 5.9415278 1.111591
-1.2176975 6.14081 1.1105776
0.36804363 5.3630762 1.2662851
-3.8053873 5.3040776 1.1377671
-5.4567118 2.3090317 1.1224232
-6.9091144 2.9195349 1.1341631
-3.8857863 3.6686409 1.123262
-3.8203988 3.5114114 1.115729
0.19357726 5.2433934 1.2314543
-3.1311588 4.9410286 1.1216434
-5.7519126 2.383508 1.122421
-8.2136345 1.6401756 1.1418114
-5.3462729 4.1245055 1.133697
-5.8328209 2.361762 1.1248583
-2.497087 4.5159931 1.1174676
-1.5705267 6.0545025 1.110867
-5.8258533 2.2313874 1.1230983
-1.5797153 5.9660435 1.1131346
-7.3329921 2.8439324 1.1379037
-3.2619886 4.8402309 1.125304
-2.5026162 4.4113288 1.1165373
-1.8032409 4.1798868 1.1166079
0.74128103 4.9569216 1.3874846
-0.17144489 5.3236065 1.0990496
-1.5799583 5.8591437 1.1165211
-1.6309478 5.8478236 1.1107776
-2.0493376 7.8435369 1.118137
-5.4573946 4.0244794 1.1354764
-1.6407192 5.740057 1.1133944
-1.4661779 7.5227618 1.1571114
-2.5378959 4.3558955 1.1164123
-1.6598212 5.6648464 1.1131967
-6.1351137 2.1276858 1.1267374
-6.2504277 2.12273 1.1270967
-6.3491769 2.1099017 1.124681
-4.8299289 3.7547967 1.1204669
-2.7985523 4.0759521 1.1176339
-2.6906793 4.3632069 1.1166804
-1.7146206 5.5454645 1.112731
-1.1670307 7.1366963 1.1421316
-3.3899281 4.5730138 1.1278805
-1.7404759 5.4410596 1.1137097
-4.9409747 3.7631421 1.1212069
-3.4067941 4.2030754 1.1191798
-1.2599444 7.165947 1.1558479
-4.9371519 3.6332288 1.131004
-1.2280378 7.0729685 1.1174877
-2.8915837 3.8863003 1.1184994
-6.7705016 2.0054905 1.129921
-1.4628807 7.0411024 1.1176513
-5.0546927 3.6521978 1.1320512
-4.7500577 5.037003 1.1373036
-1.8883369 5.3675456 1.1155052
-0.88794661 6.7523122 1.1896621
-1.8968225 5.2819161 1.1185374
-2.7669599 4.1446457 1.1176349
-3.5505173 4.0572743 1.1204759
-0.91530222 6.7742639 1.1957042
-1.0850133 6.7488966 1.1142282
-1.0964324 6.6122603 1.1173561
-1.9446323 5.1496134 1.1173006
-7.2056403 1.9062103 1.1351656
-4.4655056 3.368911 1.1228541
-1.2465055 6.6555948 1.1157551
-0.33486184 4.9803715 1.098515
-1.9845288 5.0533252 1.116647
-1.3748376 6.6491427 1.1140831
-2.921674 3.5175655 1.1142918
-1.4193901 6.6752801 1.1146705
-1.5806525 6.6504674 1.1153671
-0.14705907 5.9559407 1.1107647
-1.6151577 6.5499287 1.1144629
-0.44947508 4.9456463 1.097295
-3.7610981 3.866127 1.1203985
-0.3371557 5.9460011 1.1003304
-2.0564473 4.9567018 1.1139588
-1.1876287 6.2624121 1.1105288
0.12276679 5.6512537 1.1808599
0.045302793 5.6863346 1.1404382
-0.036177304 5.6523695 1.1215179
-3.0334556 3.4265952 1.1124954
-0.45148459 5.0365973 1.0985118
0.1348719 5.7285752 1.1469446
-1.1709654 6.3451409 1.1112432
-7.8705335 1.9794328 1.1418482
-2.8763354 4.289845 1.1216466
-2.8383863 4.3425226 1.1208218
-1.3475854 6.7474794 1.1146872
-1.3338177 6.8445187 1.1170211
-2.5232332 1.8232728 1.2966388
-1.0642533 6.8364334 1.1156772
-2.7506769 4.4337401 1.1201988
-2.1597824 3.7425685 1.1121433
-0.9496116 6.8520961 1.1691241
-2.1743026 3.8434062 1.1112187
-0.96318394 6.9491234 1.1553314
-2.0328786 3.8399475 1.1129586
-2.7247245 4.246829 1.117564
-2.7141931 4.507359 1.1172314
-1.3717908 7.2740512 1.1226237
-5.0426946 3.9133666 1.1273147
-2.6537983 4.5466185 1.1183832
-2.0785246 4.0669932 1.1119841
-1.2788652 7.3120723 1.1644932
-1.8031015 7.6208253 1.1210254
-1.6033713 5.9381418 1.1114089
-6.4073839 2.3039017 1.1280971
-2.6126065 4.615603 1.1154449
-1.9745942 4.1756754 1.1173156
-1.9830494 4.2616448 1.1146551
-1.9503887 4.3556151 1.1137401
0.56066573 5.1591949 1.3535384
-0.27700093 5.6112266 1.0953941
-1.5373784 6.1356544 1.111533
0.60810965 5.109848 1.364467
-1.5078609 6.2378531 1.1120595
-6.2704329 2.4762743 1.1276242
-1.863148 4.4502172 1.1135305
-2.6969984 4.8537755 1.1175584
-6.1949906 2.4905975 1.1278822
-1.4836668 6.3671994 1.1095854
-1.449285 6.4618001 1.1103191
0.59057367 5.1289263 1.4021336
0.089484677 5.5858998 1.3272495
-1.4165956 6.5213881 1.1139836
-3.2292616 5.322022 1.1264555
-5.8457546 2.5693274 1.1234885
-5.7393284 2.5916755 1.1235044
-7.3263154 1.5438111 1.1384336
-7.3540626 1.615996 1.1394721
-3.9813094 3.9880016 1.1218268
-2.4315438 5.2408967 1.114908
-5.6520438 2.2472088 1.123138
0.26722312 5.4605498 1.2463913
0.32428369 5.5405235 1.2715275
-4.8280301 2.2822342 1.1209766
-0.7226615 4.6585054 1.0980763
-4.7246127 2.1041231 1.1171461
-0.6578247 4.6559639 1.0973167
-2.3605533 5.5332661 1.1120795
-4.6685748 2.1329548 1.1152679
-5.2462587 2.7361364 1.1219069
-5.159091 2.7572699 1.121326
-0.62912005 4.7523379 1.0967808
-0.54227281 4.7496562 1.0970117
-3.5162561 3.4114494 1.1149175
-2.2380347 5.8556547 1.117013
-4.9529223 2.8195622 1.1206421
-0.50940984 4.8153276 1.0972428
-0.46963829 4.8650193 1.0967841
-0.45133272 4.965549 1.0959356
-3.3099172 3.2174401 1.1116759
0.095428973 5.4328108 1.1763456
-2.0783458 3.7619328 1.115592
0.043370508 5.5761285 1.1667846
-0.40120947 5.063796 1.0980076
-7.4520426 1.562112 1.1399357
0.12091237 5.6522312 1.166563
0.12249577 5.7020569 1.1622287
-1.9943597 3.888494 1.1133704
-7.3467474 1.7109232 1.1347779
-1.9574764 3.957556 1.1120149
-7.3532338 1.8538531 1.138712
-6.5486465 1.6785702 1.1315171
-7.3005185 2.0945511 1.1356542
-2.1115241 4.4520121 1.1105019
-6.5447993 1.8412536 1.1300734
-1.8720014 4.0649033 1.114983
-6.4579649 1.8600763 1.1318345
-6.3766804 1.8808477 1.130944
-4.0470724 3.0592265 1.114504
-6.3153443 1.9027934 1.1285708
-6.253109 1.7315528 1.1291934
-3.9680505 3.0649796 1.1152203
-3.0358593 4.5304112 1.122937
-3.9587064 2.94644 1.1140597
-4.0692515 2.9487395 1.11176
-6.3184977 1.7106754 1.1309707
-3.0785558 4.4785094 1.1238099
-7.0700006 1.9216501 1.1368587
-8.4571295 2.4133775 1.1430922
-3.1324604 4.4266491 1.1229364
-7.0614266 1.7268221 1.1364789
-7.1520748 1.7064322 1.1363922
-4.0564647 2.849967 1.111271
-3.1878211 4.3761587 1.1219157
-7.1441345 1.6784059 1.1392336
-7.1652136 1.5723127 1.1366749
-4.1614547 2.855108 1.1130038
-3.8488786 4.5409255 1.1296731
-7.8210325 1.7314309 1.1442888
-7.8435979 1.6444011 1.1383871
0.98801422 4.6868978 1.5145113
-3.1102824 4.1163263 1.1163685
-8.6114149 1.7289021 1.1480559
-4.1368222 2.7445765 1.1079161
-4.2371325 2.7184029 1.1051114
-0.49571916 5.4655051 1.1031642
-3.9547093 4.4483132 1.1283262
-1.8062788 5.9174118 1.11229
-3.9163136 3.4251301 1.119025
-4.000452 4.3904319 1.1262972
-0.54584712 5.2564206 1.100853
-3.3619399 3.1771247 1.1131563
-5.0508499 3.0383239 1.120608
-0.54214305 5.1377625 1.1019176
-2.9143648 3.9130266 1.1173207
-0.57716936 5.054606 1.1016459
-4.3468595 2.6248817 1.1129162
-3.2471814 3.9497433 1.1185337
-0.52883118 4.9707203 1.0997182
-4.4489527 2.6147764 1.109983
-4.7423849 4.5056968 1.1294843
-0.66278839 4.8406243 1.1003509
-4.5432143 2.6785138 1.1263007
-3.3397338 3.858592 1.1191248
-0.65820706 4.7486119 1.100903
-3.4564233 3.4606645 1.1145432
-4.5509315 2.5501308 1.1144559
-0.61023593 4.604672 1.1000001
-4.6396208 2.5264626 1.116763
-4.8320608 4.4291291 1.1328851
-2.1626558 5.1517119 1.1156493
-3.4544201 3.7498736 1.1201634
-4.7160492 2.5114973 1.1169916
-2.1928797 5.0597873 1.1158164
-4.7598271 2.4670162 1.1188422
-4.8558426 2.4353859 1.1192834
-2.1129732 4.9190645 1.1118329
-3.4497097 3.6474113 1.1199037
-3.5447569 3.6592774 1.1203979
-2.29357 4.9509645 1.1148983
1.0374671 4.6393404 1.5238866
-1.0939801 6.0733747 1.1093539
-4.9383302 2.4363723 1.1203848
-1.0740995 6.1361289 1.1114119
-2.9540417 5.1322846 1.1231394
-7.2593193 1.6548613 1.1371727
0.1681336 5.5713463 1.2153089
0.50589192 5.2104721 1.327041
-2.9768345 5.0737834 1.1224169
-5.0560937 2.342943 1.1225824
-1.9980624 5.9760175 1.1120321
-1.2979549 5.7956028 1.1101745
-5.1463342 2.3555517 1.123548
0.46013227 5.2488976 1.3109177
0.84877461 4.8456898 1.4445934
-1.2987275 6.2646751 1.1112165
0.79293692 4.8987608 1.4121654
0.51221097 5.2074165 1.2797812
-3.0244877 4.8564153 1.1233315
-1.3196619 6.259635 1.1073177
-1.3494946 6.1472454 1.1088997
0.55456352 5.16538 1.2898238
-3.6826451 3.4795613 1.1218807
-1.3888329 6.0369787 1.1078712
-5.3592348 2.2756371 1.1217833
-3.7452004 3.4499426 1.1208844
-2.3080676 4.4057736 1.1114632
-1.411368 5.9512181 1.1094525
-5.4557571 2.268575 1.1230402
-2.3310211 4.3449187 1.1142581
-1.4361957 5.8428426 1.1111112
-5.5471601 2.2483501 1.1227583
-2.4667377 4.3765712 1.1153431
-1.5978016 5.7700334 1.1161366
-5.528286 2.1091652 1.1213658
-3.8471234 3.4396629 1.1203218
-1.658042 7.7135754 1.1424451
-3.8846262 3.3659499 1.1238919
-2.4292946 4.236598 1.1145177
-2.2148626 5.9419985 1.1168234
-5.730752 2.1564715 1.1327462
-2.5726614 4.1505389 1.1131506
-2.6942668 4.1763301 1.1139718
-5.8241282 2.1377852 1.1367925
-1.6589106 5.5642276 1.1168246
-3.9592648 3.354295 1.1220703
-5.9457564 2.1475174 1.1302061
-2.6144266 4.0390382 1.1134746
-2.5426388 4.266345 1.1146058
-5.9261241 2.0023122 1.1253957
-0.19612101 5.0708847 1.0991491
-2.6481323 3.9481726 1.1138252
-1.3546598 7.3534355 1.1479756
-1.7579093 5.3335972 1.114329
-6.1836896 2.0903423 1.1281743
-4.0019197 3.2108634 1.1163791
-2.7180843 3.8170669 1.1136209
-6.2628222 2.0739257 1.1289731
-4.0710988 3.2894375 1.1228163
-2.5920196 4.0792713 1.1131533
-1.7508594 5.2508769 1.1173091
-0.99385262 7.0007296 1.1271331
-0.93559313 6.938817 1.1346436
-1.0385945 6.9288268 1.1543142
-4.1598525 3.2526448 1.1187025
-2.8216753 3.6285639 1.1155198
-1.2007732 6.9145718 1.1150699
-0.27953684 4.9155717 1.0980929
-1.8363971 5.1344032 1.1148931
-1.2806044 6.9522457 1.1152003
-2.8744886 3.5750868 1.1145521
-6.7519798 1.9744909 1.1355269
-0.30020544 4.8639765 1.0989854
-4.2069583 3.2013149 1.118371
-6.8328981 1.978767 1.1331191
-6.8067169 1.8018824 1.1321987
-1.9299163 4.9332762 1.1107888
-1.5306745 6.8404727 1.119132
-0.97483367 6.5863504 1.1149149
-1.7483484 6.8573709 1.1168919
-2.9684024 3.4533219 1.1156516
-1.1529673 6.5430231 1.1144902
-0.39226183 4.8622017 1.0976642
-1.9499292 4.8224053 1.1119528
-1.2230374 6.5419054 1.108658
-0.36498174 4.7428479 1.0971516
-0.31923112 6.0020366 1.0973487
-1.395291 6.5829153 1.1141988
0.014718475 5.8381848 1.1284792
-0.043026812 5.8493748 1.1051757
-0.14412552 5.8399339 1.1059632
-7.7596087 1.7654501 1.1395695
-3.0534625 3.3590856 1.1170421
-0.030110311 5.899415 1.1023222
-2.7773376 4.0759587 1.114307
-1.1622168 6.6638341 1.1134794
-3.6697357 3.9658742 1.1199299
-2.7349615 4.1320662 1.1142349
-0.96164846 6.6492114 1.1136982
-0.93438023 6.7785401 1.1156262
-0.86570007 6.7838545 1.1456004
-0.21919256 5.024591 1.0990258
-2.6364834 4.2271562 1.1146722
-2.8737106 3.9433668 1.1177515
-2.0647352 3.6442966 1.1155684
-2.0471699 3.7532172 1.1139742
-2.0210025 3.8489344 1.1118093
-2.5402775 4.3431735 1.1132323
-1.9760532 3.9615855 1.111302
-4.1665778 3.563746 1.1227037
-1.926254 4.0416608 1.1122494
0.74100316 4.9506617 1.3783942
-0.15587023 5.4039879 1.0938201
-1.8495435 4.1417003 1.1155404
-1.8384945 4.220439 1.1151053
-5.950407 2.3635452 1.1236011
-0.17326733 5.4187403 1.094795
-1.8384409 4.2907343 1.1098733
-2.5658457 4.6093411 1.1159968
-3.9591389 3.6436174 1.1223074
-1.7274635 4.4456358 1.109086
-0.0678358 5.617321 1.098835
-7.5239186 1.5431609 1.1418657
0.69359106 5.0071745 1.4014263
-5.558167 2.4463105 1.12441
-0.018541174 5.7406015 1.0985585
-3.8560448 3.7293763 1.1212744
0.37080044 5.3595405 1.2400621
0.41089934 5.3227978 1.251014
-0.64603889 4.3519869 1.0973774
-1.2808635 6.335361 1.1110762
-5.239151 2.5422595 1.1217779
-0.63898295 4.4589982 1.0984015
-4.8445125 2.1161411 1.1196868
-0.57933384 4.4694271 1.098289
-4.7519455 2.1445661 1.1196479
-0.5456453 4.5403519 1.0970089
-4.6597033 2.1802611 1.1164184
-0.44279003 4.5865235 1.0975537
-4.548862 2.0152168 1.1152993
-4.6010032 1.9962728 1.1166356
-0.49350888 4.6773348 1.0958097
-6.1744294 3.308728 1.1300294
-2.0506666 3.5810678 1.1162621
-3.3456659 3.2691879 1.1120828
0.15759465 5.1047544 1.1853479
-1.9701879 3.6569221 1.1150326
-1.6108694 4.3554583 1.1093099
-1.5908602 4.3892279 1.1102872
0.14710055 5.3307886 1.1781666
-3.2797446 4.2542219 1.121515
0.15790164 5.4302163 1.1718346
-1.8817616 3.7682781 1.1149737
0.24824223 5.4768987 1.1893508
0.23265627 5.517478 1.1732521
-7.2336006 1.5553347 1.1383848
0.2613731 5.7489948 1.1384224
-1.1536896 7.0371938 1.2099304
-6.440587 1.5487611 1.1318383
-6.3087096 1.5633444 1.1320864
0.32955959 5.387866 1.1980764
-6.3574495 1.6928593 1.1304052
-6.3134179 1.7097207 1.1291535
-6.2378278 1.7308853 1.1282294
-3.8499448 2.9512293 1.1113378
-3.8457351 2.5770707 1.0926174
-6.2651396 1.5796549 1.1298146
-3.8490815 2.8781826 1.1130667
-6.9435024 1.7508453 1.1345228
-6.9056382 1.6118433 1.1351477
-2.92788 4.2405057 1.1214314
-0.2510983 6.0541911 1.1371983
-0.34890777 5.5368037 1.0977036
-7.0302329 1.534986 1.1348418
-3.9525309 2.8430076 1.1116217
-7.0567255 1.477883 1.1344624
-0.20603697 5.7504935 1.0997921
-3.9513621 2.7552788 1.1094638
-0.62602055 5.1872454 1.0984781
-3.0551939 4.133121 1.1192425
-0.24040507 5.6470604 1.1014984
1.1247162 4.5381298 1.5467916
1.0828165 4.5806584 1.5350465
-0.3242991 5.4480534 1.1007016
-0.61500537 4.9753532 1.0986189
-0.38721234 5.307673 1.1007439
-4.0554724 2.7342291 1.1108842
-0.35600829 5.2479005 1.1006267
-4.0482588 2.6302249 1.1114898
-1.8622192 5.7531185 1.1103244
-0.66414267 4.851573 1.0990719
-4.1539416 2.6949353 1.1132989
-0.50071144 5.0245028 1.1002592
-3.1471379 3.9555888 1.1206465
-3.9579749 2.5885191 1.1089802
-0.42604196 4.96594 1.1006691
-0.70965296 4.7220821 1.0986987
-0.48091662 4.8517218 1.1003205
-1.2312009 6.7581477 1.1141576
-4.2693176 2.665925 1.1104932
-4.2259979 2.5088599 1.1083347
-0.5332731 4.7419734 1.1007023
-3.1231043 3.7227528 1.1156217
-0.55916601 4.6930089 1.1003067
-3.2812045 3.7729149 1.1219321
-4.3698268 2.5674529 1.1220665
-5.1624856 2.16943 1.1217586
-0.53847611 4.5415344 1.1018572
-5.1338549 2.2128544 1.1205606
-0.64479321 4.5445604 1.1007876
-4.477293 2.5665925 1.1139787
-0.55619657 4.4480152 1.1009859
-4.3498178 2.4396746 1.1118557
-0.67071402 4.4635391 1.1002935
-4.4392385 2.4222155 1.1133581
-3.2332299 3.6218421 1.1161767
-3.0665002 3.7580822 1.1174427
-0.64409518 4.3516111 1.100914
-4.5053811 2.4014821 1.1133208
-3.3884523 3.6976378 1.1173528
-0.62625706 4.23669 1.1013938
-3.3500919 3.5244074 1.1162632
-2.1437433 4.8372345 1.1129485
-4.6490211 2.4809508 1.1183983
1.0610033 4.6212158 1.5030278
-4.6381412 2.3399279 1.1161081
-3.1550717 3.3524144 1.1145722
-2.1760318 4.722827 1.1150857
-4.7601581 2.3160057 1.1175272
-4.1486731 3.8706253 1.1249242
0.90288836 4.8019533 1.4568049
-1.160207 6.141325 1.1084486
0.61030203 5.1031337 1.3203799
-1.1269175 6.2459431 1.108035
0.22773816 5.5158772 1.2257499
0.94061548 4.7467618 1.4639753
-1.1917359 6.08181 1.1075232
-2.2408695 4.5489573 1.1122768
-4.9319916 2.2476213 1.1201254
-2.2752872 4.4575138 1.1130427
0.56315613 5.1503568 1.3209682
-1.2026962 6.0334525 1.1091406
-5.0544024 2.2284625 1.1197004
-3.5571108 3.3525403 1.1147057
-2.931304 4.642303 1.1228688
-1.6440376 4.2557411 1.1107354
-8.8097773 1.7237395 1.1567227
0.59803683 5.1196055 1.2824845
0.6202805 5.089489 1.2933216
-5.2458053 2.1427083 1.1214437
-2.2498131 4.2201676 1.110605
-1.4679189 5.749166 1.1101379
-3.6355944 3.3209994 1.1159064
-2.3627605 4.2376842 1.1119516
-1.4777369 5.6449986 1.113318
-5.3574147 2.1345565 1.1206961
-3.6647949 3.2697647 1.1155419
-2.379247 4.1766896 1.1110693
-1.5179017 5.5461574 1.1132817
-5.4418325 2.1278653 1.1215885
-3.7412102 3.2278545 1.1160796
-1.5344002 5.4320126 1.1155472
-5.5689416 2.0485115 1.1247861
-2.6325285 3.9300268 1.1111836
-1.6717688 5.4438252 1.1187438
-2.4315159 4.1318331 1.1094366
-2.686892 3.8626251 1.1128645
-5.6405315 2.0416293 1.1284086
-2.4525955 4.061285 1.1109582
-3.8207216 3.1986332 1.1147255
-5.7695246 2.0091276 1.1301268
-3.8573217 3.1616061 1.1168017
-2.7580686 3.748668 1.1144947
-5.8438315 1.9796872 1.1255502
-2.4446449 3.9424157 1.1139036
-2.7956653 3.6686323 1.1151804
-5.9397607 1.9580623 1.1287848
-1.7671824 5.1666365 1.1172924
-3.9471245 3.1269517 1.1175859
-6.0560207 1.9641644 1.1272928
-2.5856824 3.9742939 1.1114142
-2.8582211 3.6560135 1.1150088
-6.1568136 1.9276631 1.1274905
-1.8542325 5.0543327 1.1115487
-0.86660427 6.8479538 1.1469954
-4.0356369 3.1099792 1.1201334
-1.8596926 4.9577718 1.1130408
-2.5126109 3.8117163 1.1118035
-4.944427 4.3245268 1.135214
-0.9439559 6.8853407 1.1363555
-1.0831126 6.8789129 1.113642
-1.1129009 6.8431907 1.1114782
-3.6369295 3.6153662 1.1197811
-6.6559281 1.8163519 1.1321695
-0.26859283 4.7520695 1.0985099
-6.7471118 1.7931707 1.1320089
-3.3970778 4.0816936 1.1214865
-1.9587333 4.7519908 1.1112709
-6.8454046 1.7763251 1.1321758
-2.940799 3.2326725 1.1121532
-0.86557305 6.4755235 1.1136737
-0.98896247 6.4621577 1.1154004
-2.009769 4.7227397 1.110628
-1.0347058 6.4337926 1.1108725
-1.1459799 6.4472523 1.1130793
-0.31704268 4.6538301 1.0982012
-3.7429304 3.5299442 1.1201373
-2.7228191 3.811959 1.1129199
-0.85862571 6.587636 1.1098741
-0.21823148 4.8529406 1.0979507
-6.7127242 1.8120621 1.1294954
-1.3021441 4.7734466 1.1103667
-2.5390699 4.0340009 1.1100432
-2.8292544 3.715749 1.1117479
-1.0614896 7.0427108 1.1471702
-2.0126884 3.4830332 1.1116899
-2.0078583 3.5248766 1.112457
-4.0562587 3.3218076 1.1214892
-6.0465641 2.1516197 1.1263527
-1.9557369 3.6471055 1.1131519
-1.9201994 3.7303021 1.1132957
-1.9949872 3.8908849 1.1123375
0.83103842 4.8650541 1.388105
-1.8223467 3.9318676 1.1121674
0.1750273 5.1553917 1.2218235
-1.896893 4.0982232 1.1132287
-2.4753284 4.4576893 1.1169749
-1.7357732 4.1318531 1.112566
-0.098232895 5.3502998 1.0988349
-1.7948748 4.2337008 1.1127368
-0.080241486 5.4056139 1.0965403
-1.7173196 4.2357039 1.1076952
-0.62655121 4.1556354 1.0984961
0.046388157 5.4054375 1.0988083
-1.7776989 4.3441696 1.1091918
0.45531428 5.2579923 1.2588377
0.79427642 4.8979502 1.4024705
0.010823046 5.5920191 1.0982347
0.75937563 4.9335518 1.4260852
0.50585842 5.2085147 1.2692429
-0.58073622 4.1798601 1.0981808
-0.53467774 4.2540197 1.0978165
0.030032989 5.6421819 1.0987759
-4.9551725 1.882163 1.1209788
-5.0463438 2.4161828 1.119839
-0.47590023 4.3581433 1.0976726
-3.2463672 3.546289 1.1166958
-5.5695553 2.872452 1.1237556
-4.6520529 2.0227075 1.1176785
-0.71868974 4.6365075 1.1006769
-4.5517364 2.0650976 1.115581
-2.4401863 3.5360208 1.1120703
-3.0128436 3.799387 1.1185921
-2.8210969 3.1213207 1.1082032
-0.63554049 4.9409995 1.1000361
-6.1636586 1.5773269 1.1287438
-6.0891123 1.5958384 1.1278069
-0.4169212 5.2395725 1.0995547
-3.2179778 3.1024733 1.1109387
-3.1343462 4.0355377 1.1197349
-1.4870323 4.2757716 1.1106653
0.37382048 5.3734899 1.1901457
0.32324603 5.4363365 1.1844456
0.31227055 5.5432076 1.1601598
-1.0015148 5.8683724 1.1101732
-3.7451806 2.8440351 1.1096811
-6.2479243 1.4451367 1.1278675
-6.1412287 1.4638895 1.1288722
-6.8272681 1.6250836 1.1335151
-6.8539662 1.5514203 1.1350036
-6.9528608 1.5680562 1.1353482
-6.9477091 1.4620545 1.1365203
-0.21478625 5.5084691 1.098675
-0.42263663 5.0213461 1.0964742
-3.7508981 2.7545147 1.1083965
-0.18792485 5.7863474 1.1004599
-0.13136587 5.66047 1.1027316
-2.8343849 4.0270615 1.1142577
-0.18809828 5.5473499 1.1007817
-3.8517008 2.7794614 1.1095188
-0.12589487 5.4424167 1.101297
-0.24982238 5.4317017 1.1011791
-0.54391366 4.9584489 1.0964537
-0.27940553 5.324563 1.1011103
-3.8517606 2.6498611 1.1088421
-0.23908642 5.2383013 1.1023273
-2.5327613 1.8211911 1.2775704
-0.2354939 5.1603098 1.1013566
-0.36696002 5.0451274 1.1001554
-2.9680839 3.8602211 1.1166965
-3.1689918 3.0715122 1.1109557
-3.9277785 2.6175551 1.1082375
-0.35440639 4.9112597 1.1022063
-0.36148235 4.8563948 1.0999942
-0.55369496 4.6407757 1.0974904
-2.6304429 1.679885 1.2754186
-0.35155752 4.7443981 1.1008245
-3.8655226 2.4527869 1.1089312
-0.46403438 4.7039175 1.1001703
-2.2333183 3.6458671 1.1085117
-0.43642315 4.6373401 1.1004392
-4.0563211 2.5491629 1.1107076
-2.9232805 3.6169171 1.1129726
-4.1434855 2.5158396 1.1106873
-0.6471684 4.5601711 1.0989989
-0.46617717 4.518539 1.1007921
-4.1904793 2.4903815 1.1106719
-4.4683695 1.8969731 1.1148978
-0.45736971 4.4455891 1.1001853
-0.50826424 4.4296651 1.0996741
-3.1422894 3.6430647 1.1181554
-0.55402493 4.3661366 1.1010145
-4.2546473 2.4715815 1.1109688
-4.4343047 1.9050088 1.1151111
-3.1684942 3.5687327 1.1170144
-0.56844133 4.2679234 1.1006114
-4.3591037 2.3329792 1.1114649
-0.61531651 4.1324921 1.1000599
-1.567598 4.7313495 1.0978543
-0.65193516 4.2582583 1.0986737
-3.1301398 3.4219489 1.1143367
-3.2786832 3.4693186 1.1173091
1.1300379 4.5307508 1.5117362
-0.98386329 5.9404449 1.1102612
-4.4631848 2.3720303 1.1141815
-2.033699 4.6720967 1.1099308
-1.0212088 6.040679 1.107283
-2.069958 4.5539813 1.1109339
-1.0033839 6.1175671 1.1047944
-4.5535331 2.3617468 1.1150097
-4.5473747 2.2165143 1.1153555
-3.2520559 3.3260651 1.1134635
0.94214976 4.7424512 1.430688
-4.6588054 2.2958376 1.1163911
0.70163637 5.0104938 1.3428591
0.98879951 4.6903219 1.4626812
-2.1473577 4.361496 1.1104248
0.32796782 5.4240646 1.2262816
-1.2291385 5.9590669 1.1082859
0.36951667 5.3574176 1.2247664
0.65563631 5.0537257 1.3446771
0.25374174 5.3139353 1.2137789
-2.180778 4.271307 1.111016
-3.4171863 3.2228129 1.1115749
0.17893486 5.3000956 1.2395791
-1.3053536 5.7422519 1.1116742
-2.23669 4.1435986 1.1128149
-5.0638647 2.1680791 1.1206632
-1.7100593 3.8024721 1.1127359
-1.4895487 5.5503097 1.1149728
-3.582335 3.2888179 1.1165012
-1.7402129 3.7561636 1.1123222
-5.0602884 2.043494 1.1183548
-5.15839 2.0267286 1.1193513
-2.2520285 4.0277414 1.1117415
-3.5336087 3.1190598 1.1123595
-1.8196131 3.6321654 1.1127036
-5.2444835 2.0053313 1.1217475
-2.3518102 4.047895 1.1136253
-1.8707457 3.5611336 1.1134784
-4.352335 3.4703021 1.1224885
-6.0520782 2.3465588 1.1240345
-2.3474755 3.9410307 1.1074178
-1.9573467 3.5462353 1.1137021
-1.9541835 3.4677224 1.1150886
-5.3629231 1.9533015 1.1225135
-5.459085 1.9346189 1.1214179
-2.6329317 3.6234682 1.1099634
-1.6548505 5.1456032 1.1108946
-5.5482793 1.9350895 1.1303893
-3.7270136 3.0088794 1.1153797
-2.3402593 3.8600233 1.1087359
-2.7301061 3.5333917 1.1090881
-5.663538 1.9787841 1.1328491
-1.76422 5.0665221 1.1135151
-2.4555571 3.8468783 1.111413
-5.7215281 1.8601279 1.1399858
-2.7527139 3.460309 1.1104767
-5.8485107 1.8333498 1.1244814
-4.5103774 3.3145888 1.1221833
-2.4863193 3.7900438 1.1092892
-2.831897 3.4420345 1.1096184
-5.9462504 1.8094949 1.1247524
-2.8502061 3.3606734 1.1103226
-6.7935109 2.1968834 1.1352152
-6.0564351 1.784245 1.1261853
-6.1441998 1.7582111 1.1274416
-2.5424354 3.7425139 1.1099142
-2.8767858 3.2855005 1.1122321
-0.85676956 6.7340794 1.1215223
-2.9901996 3.2812693 1.1116928
-0.92572588 6.7254004 1.1121953
-2.5757573 3.6508017 1.1141734
-6.4070363 1.7007782 1.1308233
-1.1338636 6.765759 1.1124613
-0.2706818 5.8535094 1.0984055
-6.5695605 1.6452129 1.1304388
-2.9888813 3.1855912 1.1129904
-6.6573348 1.6476735 1.1309952
-6.7656507 1.6273047 1.1297389
-0.2658003 4.5881419 1.0994428
-0.778705 6.3403888 1.1149991
-1.3819008 4.2501707 1.1080436
-0.8719511 6.3407497 1.1142327
-3.0637321 3.1557975 1.1115388
-0.79942083 6.4941092 1.1090038
-0.23883516 4.6567178 1.0977254
-3.5831959 2.3497193 1.0935135
-2.9430232 3.3299088 1.1105777
-1.2850184 4.5328779 1.1057574
-0.18859103 4.7481604 1.0980204
-6.2488675 1.9127586 1.1275387
-0.15159641 4.8249898 1.0977263
-0.073397361 4.967823 1.0993772
-5.8768167 2.0138786 1.1271554
-0.040179156 5.0434504 1.0982995
-5.1208997 3.8990455 1.1297687
-1.8863426 3.7761626 1.1148833
-1.8413416 3.8446441 1.1148696
-1.7630806 3.9581165 1.1171998
0.54876691 5.1654754 1.2663707
-1.7386892 4.0363598 1.1161304
-1.7236254 4.1943235 1.1101499
0.60167766 5.1176004 1.2646959
-0.58716398 4.0435538 1.097353
-1.6908396 4.2702098 1.1109537
0.58922583 5.1224923 1.3035485
-1.6627893 4.3600512 1.1079584
-0.49000564 4.1922641 1.0976694
0.85935384 4.8335137 1.4159306
-1.2712537 5.8624363 1.1088654
-1.0562605 5.9415259 1.1087052
-4.0927629 1.8956319 1.1110498
-3.3546498 3.748131 1.1207238
-4.5562878 1.9080786 1.1158464
-4.4572864 1.9412938 1.1160494
-2.7178223 3.0062797 1.1044321
-2.7323718 1.7316098 1.2803286
-2.6519744 3.05744 1.1055459
-3.6916196 2.376379 1.1062912
-0.33957776 5.1445017 1.1017418
-1.5392703 4.2472663 1.1085814
-1.4022987 4.2024479 1.1087557
-1.4278264 4.1471367 1.1075965
0.43092728 5.2830482 1.1952934
-2.9865301 4.172874 1.1211238
-1.433336 7.1373458 1.1183281
-0.08886496 5.7782836 1.1006348
-3.6334 2.7638512 1.1090088
-6.884459 1.4791365 1.1337012
-0.92026311 5.8237357 1.1087829
-0.32986975 5.0386314 1.0974219
-3.5444806 2.7268851 1.1053921
-0.36536655 4.9501872 1.0968486
-0.047496811 5.6578422 1.1005096
-0.0548697 5.5457892 1.1287467
-5.3408613 1.5002819 1.1255571
-0.34528145 4.8617983 1.0962329
-0.064900599 5.4527321 1.1034784
-3.6451457 2.659924 1.1060767
-0.1365221 5.335259 1.1051052
-0.14943276 5.2155495 1.1038824
-0.35597739 4.7471967 1.0963629
-0.13819122 5.1495776 1.1007364
-3.6650782 2.543793 1.1075451
-0.28144208 5.0622258 1.1013428
-0.4532024 4.7492986 1.0967938
-0.26030609 4.9422226 1.1012824
-3.7426817 2.5224249 1.1074276
-0.42382032 4.6281404 1.0978509
-0.21810438 4.8380871 1.099862
-1.6870583 5.3459144 1.1201252
-3.2536988 3.0455294 1.1114954
-3.8669226 2.5061781 1.1002489
-0.83180332 6.6425796 1.117979
-0.39521497 4.6548743 1.1011182
-0.45574513 4.5246897 1.0974427
-3.769109 2.4891136 1.1086557
-0.36843735 4.5405455 1.1002632
-2.9678721 3.5609255 1.1139098
-0.34340695 4.4361939 1.1002839
-3.9513273 2.4207971 1.1088079
-0.44354364 4.3964305 1.1000513
-4.372242 1.7957951 1.1134242
-4.3191876 1.8152846 1.1129754
-4.02493 2.4039924 1.1092426
-1.8701267 4.8364968 1.112835
-4.0471191 2.3755822 1.1108285
-3.9700272 2.3683088 1.1154609
-0.55019027 4.3590417 1.0978961
-3.0640569 3.4690092 1.1147468
-1.8355894 4.7386088 1.1074538
-0.57800841 4.1626754 1.1005273
-0.55460584 4.0613294 1.1003585
-3.9632871 2.2586145 1.1084152
-3.8521605 2.1524577 1.1079749
-1.333459 4.5082531 1.0971773
1.145775 4.510622 1.5030591
-3.7419469 2.1676538 1.1107006
-1.9054374 4.5048327 1.112126
-1.4813114 4.5320525 1.0982908
-0.95873415 6.034152 1.1118715
-3.9413085 2.125598 1.1086209
-1.9235094 4.4473076 1.1122323
-4.0554571 2.1341281 1.1098632
-4.2540274 2.2844021 1.1121489
1.0282098 4.6503224 1.4703999
-4.3600821 2.2505164 1.1124521
1.0775181 4.5842776 1.4808403
-4.4423018 2.2458246 1.1131012
-3.1686893 3.2737968 1.1165253
-3.2472 3.2374406 1.114174
-2.018419 4.2106891 1.1131892
-4.5538316 2.1687429 1.1151298
-1.1154575 5.9644003 1.1110108
-2.8203292 4.4088154 1.1173362
0.41186398 5.3106041 1.2277898
-1.2886329 5.7649889 1.1093067
0.84436214 4.8453021 1.3737129
0.7953732 4.8902464 1.3653756
-1.3226792 5.6515861 1.1114752
0.38847378 5.335803 1.2045398
-1.6799225 3.866919 1.1133658
-4.7619805 2.0878325 1.1187609
-2.1466098 4.0154476 1.1100348
-4.8517303 2.0675657 1.119056
-1.7801123 3.683768 1.113551
-1.4974036 5.4723034 1.1173714
-2.1491549 3.9432516 1.1092494
-1.7238314 3.5324249 1.1141968
-4.935339 2.0648046 1.1216319
-3.4653423 3.1565154 1.1123374
-2.2858782 3.960284 1.1102034
-4.1758499 3.3135273 1.1199584
-1.863148 3.5487852 1.1132083
0.71550149 4.9809771 1.2965995
-5.747324 2.2546852 1.1220291
-1.8552341 3.4477699 1.1138946
-3.5697138 3.0846627 1.1125923
-2.2165401 3.8019056 1.1070204
-1.5513365 5.1517577 1.1122047
-1.9247336 3.3714585 1.1123132
-5.1360846 1.9819875 1.1205733
-5.2558303 1.967782 1.1208779
-2.6735675 3.5655661 1.1102639
-2.2505786 3.7447734 1.1072046
-2.3558967 3.7449656 1.1083038
-5.2396808 1.82692 1.1217376
-5.3531537 1.8141242 1.1220543
-3.6711662 2.9763091 1.109591
-1.7479682 4.9617743 1.1083606
-5.4981499 1.8917819 1.1237326
-1.7568941 4.8396993 1.1104745
-2.7695024 3.3618457 1.1084174
-5.5581436 1.852527 1.1346768
-3.7556005 2.9584475 1.1125408
-2.3641181 3.6604671 1.1077716
-5.6398063 1.7162771 1.1257979
-2.8164785 3.2069404 1.1068778
-5.7108765 1.7030412 1.1250864
-2.4148588 3.6193645 1.1080662
-1.1164745 7.0685492 1.136826
-1.8692743 4.6456246 1.1083562
-2.8591328 3.1481705 1.1095742
-5.9721088 1.780498 1.129817
-6.0607386 1.6212199 1.126887
-2.4424791 3.552341 1.1088969
-2.9258978 3.1108601 1.1071491
-1.2681822 4.2415047 1.1070324
-6.138639 1.6045045 1.1288992
-2.9497871 3.0455203 1.109165
-3.1690748 2.2577012 1.0962189
-0.96996677 6.6324368 1.110823
-3.2379928 3.849534 1.1204618
-6.4486942 1.6771846 1.1313492
-1.2929078 4.1772084 1.1075591
-1.0049971 6.5052681 1.1145692
-1.236475 4.3339543 1.1060432
-0.16750166 4.6502256 1.0964051
-0.092996687 4.7784748 1.0990673
-3.7815723 3.1936409 1.1179028
-1.9123706 3.4284453 1.1140964
-5.4462247 2.0735295 1.1220301
-1.8214455 3.6505334 1.1115766
0.019571748 5.0103726 1.0982805
0.64405584 5.0638289 1.278615
-1.7307947 3.8448009 1.110469
0.70235234 5.0030017 1.2903932
-1.6535317 4.0636268 1.1136142
0.66466117 5.0450392 1.3124752
-1.659399 4.1432343 1.1110584
0.27502999 5.4514232 1.2193422
0.89004385 4.7916303 1.4034023
0.98770994 4.6909127 1.4308757
-3.3502686 3.4334214 1.1152123
0.94270837 4.7375965 1.4186971
-3.1474063 3.1398571 1.1112486
-2.3867095 3.0927753 1.1075373
-4.2414441 2.3195391 1.1116171
-0.53413117 4.2022028 1.1003067
-4.4396772 1.8082944 1.1157438
-2.7473392 3.0537093 1.104967
-1.6900715 3.3723054 1.1148058
-5.7339048 1.3340694 1.1278989
-2.6516762 2.8456817 1.1061355
-2.6011934 2.8963313 1.1041647
-5.6626964 1.3585082 1.1273235
-1.4249376 4.2432027 1.1080767
-3.7711225 2.6560037 1.1082544
-3.3567183 2.3737061 1.1029214
-3.4612217 2.4653814 1.1054635
-0.42769021 4.8183994 1.0961678
-1.4725358 4.1437535 1.1080382
-1.3127441 4.1256824 1.1080389
-1.3418202 4.0439057 1.1094813
-0.23198533 4.923017 1.0986906
-3.4453111 2.6438861 1.1055585
-0.26272139 4.8631601 1.0961666
0.050472334 5.474185 1.1027274
-0.054186396 5.3522835 1.1021103
-5.2654185 1.4048158 1.1235803
-3.5520074 2.6644292 1.105906
-0.047730874 5.242671 1.1016241
-0.2432142 4.7437615 1.0961782
-0.064160183 5.1620874 1.1013318
-0.041278087 5.0822186 1.1007054
-3.5535581 2.5644128 1.1090442
-0.14427991 4.9465165 1.1004373
-0.35097709 4.6608872 1.0968808
-0.15421087 4.878233 1.1012523
-3.346673 2.4333472 1.1050384
-1.5510539 5.3542237 1.1158011
-0.35725534 4.5494967 1.0971851
-3.6446297 2.4127758 1.1041123
-1.572672 5.256495 1.1162918
-1.6276175 5.2324843 1.1128258
-5.3274193 1.385257 1.1263002
-0.28591383 4.5465775 1.1002207
-0.35278043 4.4495788 1.0972842
-1.6607245 5.0582781 1.1129061
-0.44845027 4.4538422 1.0974517
-0.3260805 4.3209791 1.100292
-3.2668829 2.1493132 1.103222
-0.34377795 4.2890921 1.0999234
-4.3125849 1.7092024 1.1109149
-3.7561469 2.3498843 1.1066877
-0.44275039 4.3356428 1.0968711
-1.7578561 4.749373 1.1109538
-3.8289254 2.3143539 1.1078968
-4.3646641 1.8394721 1.1142411
-0.46153912 4.0839462 1.09981
-0.45278969 4.2552323 1.0965893
-0.5298807 4.237946 1.0969691
-1.8488811 4.5374064 1.1134834
-6.4548569 1.4577529 1.1293924
-3.8628144 2.283371 1.1101201
-0.83981228 5.7220616 1.1090783
-0.14487027 5.6963258 1.0952312
-0.5403685 4.1342711 1.0967191
-0.58038712 3.8933871 1.1007341
-2.4556518 3.4637861 1.1159232
1.1222914 4.5384851 1.4833815
-3.0411189 3.2435169 1.1116152
-0.23104067 5.4574618 1.0984336
-3.9581687 2.0666511 1.1089983
-4.1600108 2.164046 1.1100491
-4.2625871 2.1500192 1.110487
-0.61318278 4.0437489 1.0958695
-0.23492301 5.3463926 1.0984173
-1.4092509 4.3971586 1.0980965
-1.1308016 5.858458 1.108278
-2.0552177 4.1477795 1.110797
-4.359076 2.1359959 1.1128519
-1.1508625 5.7556643 1.1088952
-0.34286818 5.2043548 1.0971065
-4.4447317 2.1300781 1.1134629
-4.4581003 2.0554821 1.114432
-1.3597724 5.5421934 1.1102114
-1.6344905 3.7434134 1.1116698
0.50826651 5.2060304 1.2381186
0.92790449 4.7564025 1.3866119
-0.37227198 5.1316586 1.0977678
0.89286995 4.7947536 1.3814181
-1.6649424 3.6484311 1.113616
0.46408412 5.2485471 1.2274619
-1.7315876 3.5474298 1.113512
-2.1583364 3.8447742 1.1084158
-4.653244 1.9651198 1.1192913
-1.7759079 3.4678085 1.1129388
-4.7581596 1.9589828 1.1207699
-3.3234763 3.0285854 1.1100214
-1.8443142 3.3573258 1.1141574
-3.3686821 2.9806147 1.1104609
-4.8515153 1.9302109 1.1207811
-2.1924963 3.7800319 1.1074121
-1.8425798 3.2571115 1.1143104
-4.9511147 1.9204309 1.1215229
-3.4537082 2.9402957 1.1099032
0.17369957 5.0704064 1.2006869
-5.063612 1.8737181 1.120847
-2.6298156 3.402174 1.105108
-2.538259 1.8246367 1.240344
-5.1579747 1.854666 1.1211991
-2.6504376 3.3433783 1.1072941
-3.4616323 2.8475525 1.1069696
-3.5631819 2.8554499 1.1088676
-2.7452557 3.2453175 1.1070917
-5.2934995 1.7972857 1.1221068
-2.6103663 1.8537039 1.2282186
-5.3590336 1.7820673 1.1220069
-2.2656281 3.5490456 1.1090876
-2.6642642 1.7135726 1.2882084
-5.45259 1.7731124 1.1219068
-3.6469593 2.8489566 1.1080242
-5.5540776 1.7438221 1.1238157
-5.5313911 1.6003644 1.1227093
-2.8537757 3.062902 1.1089557
-5.6868057 1.6960453 1.1263853
-5.7676005 1.6848323 1.126219
-2.319397 3.4427876 1.1088465
-2.7239892 1.6641532 1.2154952
-5.8606172 1.6612796 1.1269329
-2.9536626 2.954689 1.1087037
-5.9649425 1.6338854 1.127382
