# .PCD v0.7 - Point Cloud Data file format
VERSION 0.7
FIELDS x y z
SIZE 4 4 4
TYPE F F F
COUNT 1 1 1
WIDTH 1557
HEIGHT 1
VIEWPOINT 0 0 0 1 0 0 0
POINTS 1557
DATA ascii
-2.3748116 5.5108743 1.1121243
-0.13134466 5.9452643 1.1767203
-7.1422257 2.635432 1.1378348
-4.3726249 4.2614217 1.131234
-2.3545797 5.5151753 1.1153216
-0.11063433 5.8862519 1.1866605
-7.0673375 2.641407 1.1388609
-4.3657823 4.2844787 1.1291283
-2.3438845 5.5422797 1.1150455
-0.089811288 5.8620167 1.193374
-7.00177 2.6509964 1.1405002
-4.3521695 4.3004537 1.1309646
-2.344347 5.5918679 1.1152023
-0.070268609 5.8626719 1.1987755
-6.9555917 2.6647208 1.1394699
-4.3451281 4.3234873 1.1288573
-2.3341069 5.618597 1.1149783
-0.050662417 5.8432441 1.2049947
-6.8806601 2.669199 1.1381845
-4.3236461 4.3325238 1.1276345
-2.3125923 5.622931 1.1162529
-0.031211078 5.8087149 1.2115582
-6.8345056 2.6821995 1.1372699
-4.3165636 4.3556409 1.1275225
-2.2980902 5.640604 1.1180011
-0.012162649 5.7343349 1.2224191
-6.7974744 2.6990962 1.1356418
-4.2914386 4.3613305 1.1287699
-2.2946179 5.6859593 1.1168147
0.006984056 5.7445617 1.2259363
-6.6848755 2.6900706 1.1400912
-4.2884302 4.3868361 1.126194
-2.2936926 5.7354426 1.1142009
0.026781887 5.7248898 1.2328898
-6.66324 2.7073576 1.1374495
-4.2601242 4.3881159 1.1259289
-2.2727635 5.7393842 1.1174647
0.045895852 5.7299838 1.2368333
-6.6214848 2.7217233 1.1363354
-4.2460642 4.4036369 1.126762
-2.2644684 5.7703142 1.1178352
0.06278415 5.7102022 1.243759
-6.570559 2.7314591 1.1348331
-4.2092633 4.3995094 1.1294259
-2.2511632 5.7923779 1.1181877
0.081209935 5.6851888 1.2492397
-6.5480666 2.750483 1.1322553
-4.1791706 4.4026608 1.1311376
-2.2484224 5.8478055 1.116168
0.10126807 5.6602731 1.2573519
-6.492517 2.7580569 1.1324362
-4.1569924 4.4116554 1.1309252
-2.2328506 5.8653498 1.1180351
0.11946876 5.6400924 1.2623563
-6.4224873 2.7614675 1.133848
-4.1391649 4.4233098 1.1312354
-2.213465 5.8738213 1.1228704
0.13754256 5.6199827 1.2691072
-6.3670235 2.7682273 1.1341442
-4.1242318 4.4390311 1.1310636
-2.2135437 5.9329853 1.1184894
0.15545025 5.5996642 1.2740523
-6.3022089 2.7712748 1.1352942
-4.1134524 4.4573584 1.129438
-2.2031043 5.9643092 1.118996
0.17324163 5.5794806 1.2816098
-6.2604322 2.7833562 1.1333338
-4.0948105 4.4695215 1.1297406
-2.1869645 5.9817438 1.1209271
0.19040434 5.5291686 1.2896363
-6.2050858 2.7889979 1.1337973
-4.0924673 4.4933672 1.128165
-2.182555 6.0264773 1.119064
0.20340122 5.4540153 1.2994764
-6.1684918 2.8011491 1.1326786
-4.0481453 4.4817324 1.1317885
-2.1642239 6.0446987 1.1220388
0.22679922 5.5230474 1.2984079
-6.1221566 2.8106492 1.1324092
-4.0331116 4.4972467 1.1335789
-2.1530275 6.0759792 1.1226361
0.24235018 5.4727077 1.3079944
-6.0762377 2.8187735 1.1321888
-4.0008307 4.4941635 1.13383
-2.1547716 6.1448674 1.1195933
0.26194188 5.4967952 1.3094803
-6.0582833 2.8372281 1.1295087
-3.9787197 4.5024457 1.1365606
-2.1360438 6.1575327 1.1220766
0.27860409 5.4712157 1.3171676
-6.0136642 2.8417552 1.1304954
-3.9702752 4.5174422 1.1330234
-2.1357658 6.2109671 1.1194708
0.29831135 5.520215 1.3178244
-5.9724302 2.8508947 1.129959
-3.9571984 4.5375767 1.1343118
-2.1165161 6.2290683 1.1225728
0.31032428 5.429697 1.3282733
-5.9265738 2.8579433 1.1298844
-3.9425285 4.5519166 1.134146
-2.1177857 6.2977953 1.1197302
0.32719964 5.4138227 1.3342785
-5.8943167 2.871264 1.1296662
-3.9388971 4.5762486 1.1325605
-2.1044731 6.3240542 1.1209631
0.34264037 5.4029326 1.3390803
-5.8521361 2.8815506 1.1270317
-3.9122081 4.580965 1.1318511
-2.0895774 6.3558741 1.1195923
0.36017346 5.37674 1.3439922
-5.8210955 2.8913755 1.1268849
-3.8878374 4.5837364 1.1341004
-2.0785849 6.3864303 1.1204282
0.37583932 5.3707094 1.34842
-5.7979503 2.9077699 1.124781
-3.8935356 4.6195021 1.1310712
-2.070848 6.4368696 1.1195029
0.39228624 5.3545871 1.3543209
-5.738369 2.9077671 1.1262026
-3.8744431 4.630652 1.1313728
-2.0686448 6.5012169 1.1184205
0.4072361 5.3234448 1.360315
-5.7015104 2.9180093 1.1265467
-3.8560367 4.6410494 1.1316824
-2.0452609 6.5041847 1.1219418
0.42292488 5.302237 1.3664595
-5.6695762 2.9289196 1.1254089
-3.8335073 4.6483774 1.1324615
-2.0407972 6.5637641 1.1202877
0.43945035 5.2909026 1.371942
-5.6194062 2.9318414 1.127139
-3.8103743 4.6564007 1.1351823
-2.0239549 6.59062 1.1216764
0.45486182 5.2695279 1.3771875
-5.5877457 2.9412265 1.1239555
-3.8033631 4.6761689 1.1331016
-2.0203435 6.6550865 1.1208084
0.47172558 5.2630358 1.3823204
-5.5278654 2.9415786 1.1287489
-3.7861276 4.6920571 1.1348616
-1.9979841 6.6625953 1.1239604
0.48691341 5.241641 1.3891585
-5.477354 2.9444284 1.1295367
-3.7609153 4.6946602 1.1361195
-1.9971256 6.7416954 1.1219332
0.50250447 5.2251039 1.3948375
-5.4508252 2.9541817 1.1270851
-3.7429736 4.7037683 1.1344886
-1.9923028 6.806181 1.1201187
0.51912582 5.2183304 1.3982722
-5.4009047 2.9555519 1.1289977
-3.7475464 4.7397561 1.1324323
-1.9752501 6.8325362 1.1205305
0.53452241 5.2016768 1.4039066
-5.3641462 2.9636459 1.1285381
-3.7266483 4.7515202 1.1327149
-1.97258 6.9066081 1.1179777
0.54793823 5.1701059 1.4103425
-5.3550682 2.983063 1.126364
-3.7028561 4.7524772 1.1339921
-1.9568079 6.9430032 1.1199332
0.56367582 5.1582541 1.4148176
-5.3408051 3.0011888 1.1226047
-3.6917541 4.7754002 1.1338197
-1.9489781 7.0028329 1.1187317
0.57934552 5.1463876 1.4200865
-5.25033 2.9825268 1.1278336
-3.6744533 4.7837195 1.1341419
-1.9407525 7.0627885 1.1187698
0.59493536 5.1344628 1.4253358
-5.223177 2.9930267 1.1275727
-3.6607883 4.8023033 1.1364075
-1.9320964 7.1226768 1.1176857
0.60975051 5.1175351 1.4308228
-5.2674842 3.0385263 1.1197733
-3.6425736 4.8109727 1.1347677
-1.9123352 7.1494584 1.1206362
0.62373602 5.0956116 1.4365326
-2.4995947 1.7304428 1.4088184
-3.6190641 4.817862 1.1365061
-1.9033116 7.2195139 1.1176293
0.64060217 5.0832467 1.4408931
-5.0913281 3.0012479 1.1291472
-3.6168616 4.8456345 1.1344415
-1.8878486 7.2499714 1.1190813
0.6542179 5.0712986 1.445263
-5.0910535 3.0240424 1.1260958
-3.5979459 4.8549662 1.1357213
-1.8672438 7.2715158 1.1225364
0.66858208 5.054162 1.4506404
-5.041182 3.0234585 1.1283284
-3.5924206 4.8851614 1.1326455
-1.8533005 7.3324637 1.1228786
0.68361068 5.0317931 1.4562091
-5.0363421 3.0439105 1.1257651
-3.574856 4.8930669 1.1329648
-1.8384664 7.3676486 1.1240381
0.69695783 5.0197401 1.461305
-4.996582 3.044606 1.1251525
-3.5644336 4.9144392 1.1328121
-1.8386177 7.4708734 1.1185995
0.71176612 5.0073133 1.4647888
-4.986773 3.0635319 1.1230769
-3.5453227 4.923532 1.1340936
-1.8207026 7.506784 1.1210797
0.72239602 4.9753718 1.4715089
-2.5116124 1.8159708 1.3943883
-3.5377722 4.9486542 1.1324879
-1.8062121 7.5622988 1.1220812
0.73527986 4.9530787 1.476943
-3.5154796 4.9537201 1.1342436
-1.7949517 7.6270819 1.1211396
0.75149763 4.950388 1.4807175
-3.5085502 4.9782701 1.1336305
-1.778507 7.6726017 1.1230257
0.76325095 4.9230866 1.4863006
-4.8727469 3.0975566 1.1213108
-3.4838805 4.9849887 1.1353587
-1.7570572 7.6985159 1.1238672
0.78028095 4.9252257 1.4906316
-4.7751966 3.0683048 1.1273949
-3.469079 4.996315 1.1342186
-1.7377627 7.7342629 1.126565
0.79176003 4.897841 1.4961441
-4.7127142 3.0581234 1.1314286
-3.458003 5.0173626 1.1330878
-1.7045158 7.7168336 1.1332829
0.8077848 4.8949542 1.5006559
-4.6945553 3.0704012 1.1304582
-3.4477506 5.0380354 1.1349196
-1.6804751 7.7329917 1.1374626
0.82090205 4.877296 1.5057229
-4.8373127 3.1716583 1.1097635
-3.4274175 5.0470428 1.1342219
-1.6387781 7.6710391 1.1448056
0.83585548 4.8693666 1.5096302
-4.731667 3.1362631 1.1189406
-3.4167979 5.0673285 1.1321148
-1.6191452 7.7064443 1.1475371
0.85000765 4.8615375 1.5135355
-4.6867452 3.1348081 1.1210265
-3.3935139 5.0723572 1.1338605
-1.5632088 7.5760989 1.1622545
0.86183357 4.8388743 1.519475
-4.6466942 3.1346793 1.1226343
-3.3917925 5.1049094 1.1342859
-1.5353626 7.5722437 1.1677376
0.87660193 4.8308182 1.5241085
-4.6234846 3.144845 1.1212784
-3.385946 5.1337528 1.1312264
-1.479697 7.441433 1.1796991
0.889202 4.8129134 1.528291
-4.6103497 3.1574667 1.1198385
-3.369143 5.1460757 1.1320398
-1.4423518 7.3883886 1.1885049
0.90598327 4.814518 1.5325832
-4.5741 3.1598985 1.1191549
-3.3435736 5.1462145 1.134262
-1.4057939 7.3247342 1.1955178
0.91257399 4.7773423 1.5373497
-4.5299988 3.1564708 1.1222948
-3.3461587 5.1873217 1.1317813
-1.3717906 7.2963347 1.2036676
0.92891014 4.7738428 1.5432768
-4.4983191 3.1610222 1.1229689
-3.3262351 5.1953549 1.1320704
-1.3375226 7.2525387 1.2115877
0.9410851 4.7557764 1.5473616
-4.4584126 3.1594293 1.122926
-3.3055301 5.2039576 1.1333449
-1.3073305 7.2281775 1.2181187
0.95658058 4.7522902 1.5517659
-4.4268985 3.1636 1.124542
-3.2913146 5.2200708 1.133691
-1.2743323 7.1939306 1.222893
0.96972924 4.7390018 1.5556792
-4.4212079 3.1820145 1.1203103
-3.2761135 5.2365432 1.1320382
-1.2445765 7.1693659 1.2305243
0.98280257 4.7256866 1.5603271
-4.4024582 3.1936162 1.1203507
-3.2645628 5.2566757 1.131917
-1.2123686 7.1297011 1.2355647
0.9945935 4.7074747 1.5650765
-4.358624 3.1887395 1.1227254
-3.2473526 5.2686367 1.1337302
-1.1804726 7.0900378 1.2428968
1.0067532 4.6942587 1.569685
-4.3439655 3.2025366 1.1204756
-3.2347057 5.2890983 1.1316077
-1.1511501 7.0496869 1.2478858
1.0144092 4.6666365 1.5738704
-4.3085461 3.2023311 1.120065
-3.2310874 5.3213854 1.1280836
-1.1175987 7.0101871 1.2562383
1.0322595 4.6673236 1.5780873
-4.2779417 3.2038586 1.1200318
-3.2155564 5.3379273 1.1294317
-1.0885508 6.9746733 1.2608242
1.0421782 4.6493278 1.5820042
-4.259675 3.2140169 1.1201221
-3.1952643 5.34547 1.1307188
-1.0602326 6.9492803 1.2681493
1.0559913 4.640604 1.5864277
-4.2115064 3.2060614 1.123173
-3.1849205 5.3699799 1.1281213
-1.0297942 6.9087577 1.2729639
1.0658493 4.6173501 1.5911191
-4.1926537 3.2165253 1.1215472
-3.1428428 5.3438835 1.1321441
-1.0026844 6.8878994 1.2776489
1.0774704 4.6039019 1.5948657
-4.1784229 3.228864 1.119385
-3.1351895 5.3726077 1.1310837
-0.97353214 6.8521838 1.2843291
1.0883977 4.5854249 1.6001387
-4.1553636 3.236419 1.1183338
-3.1281667 5.4007215 1.1290324
-0.94465488 6.8162684 1.2898501
1.0978315 4.5620861 1.6039954
-4.1078029 3.22667 1.1198051
-3.0997412 5.3952703 1.1317178
-0.91636336 6.7902589 1.2947298
1.1125942 4.5579591 1.6075231
-4.0641217 3.2201207 1.1216164
-3.0915759 5.4236965 1.1276489
-0.88800853 6.7540846 1.3001778
1.1245625 4.5441709 1.6111903
-4.0497684 3.2318056 1.1178353
-3.0570016 5.4099345 1.129265
-0.86059529 6.7226005 1.3031193
1.138568 4.5401525 1.6154425
-3.9980049 3.2192304 1.1208673
-3.0364442 5.4165621 1.1275519
-0.83471328 6.700963 1.30655
1.1503922 4.5262752 1.6183581
-3.9559929 3.190804 1.1174744
-2.9751172 5.3187737 1.1285871
-0.83236343 6.6905541 1.2963045
1.1524649 4.530817 1.6139357
-3.9411395 3.1589918 1.1186138
-2.974834 5.2774472 1.1272688
-0.85886979 6.7167401 1.2860096
1.1349565 4.525466 1.6076643
-3.9589794 3.1501603 1.117573
-2.9602892 5.2157078 1.1294035
-0.88829696 6.7628489 1.2787608
1.1251618 4.5438614 1.6024629
-3.9648931 3.1324105 1.1191034
-2.9666381 5.1878829 1.1286523
-0.91527945 6.7889123 1.2704992
1.1131675 4.5576129 1.5965891
-3.9784415 3.1206567 1.1178218
-2.9789324 5.167871 1.1259878
-0.94532907 6.8345308 1.259786
1.0983853 4.5617089 1.5916047
-3.9883134 3.1055057 1.1179485
-2.9769115 5.127501 1.1267605
-0.97131699 6.8504601 1.2520316
1.0916077 4.5946484 1.5860269
-4.0143161 3.1016879 1.1149199
-2.9854071 5.1038313 1.1246277
-1.0004433 6.8860021 1.2429112
1.0760747 4.5936379 1.5811068
-4.0115504 3.0783951 1.116791
-2.9864457 5.0672331 1.1249721
-1.0298418 6.921402 1.2337104
1.0676572 4.6216969 1.5748019
-4.0171385 3.0605214 1.1183205
-2.9918888 5.0394368 1.1233912
-1.0591798 6.9617634 1.2240773
1.0577714 4.6449242 1.5692884
-4.0264993 3.0460303 1.1200851
-2.9760783 4.9782405 1.1286937
-1.0878409 6.982008 1.2168995
1.0421103 4.6437616 1.5643404
-4.0319433 3.0281298 1.12161
-2.9950376 4.9714918 1.1274284
-1.1180218 7.0171447 1.2097657
1.0307627 4.6620955 1.5596341
-4.0748539 3.0343156 1.1171083
-3.0027235 4.9479165 1.1254066
-1.1493162 7.0570555 1.2022265
1.0168089 4.670671 1.5536789
-4.0929499 3.0240288 1.1169088
-3.0055873 4.9158497 1.1272058
-1.1809093 7.0966492 1.1923057
1.0071913 4.693594 1.5487708
-4.0977712 3.0065744 1.1176041
-3.0145402 4.8913455 1.1261585
-1.2277495 7.2196202 1.1773143
0.99188721 4.6972251 1.542918
-4.1158781 2.9961894 1.1182384
-3.0141501 4.8551726 1.1275769
-1.2710263 7.3178763 1.1651368
0.9813062 4.7202592 1.5379483
-4.1243401 2.9818842 1.1175199
-3.0282931 4.8450313 1.1249825
-1.3022202 7.347086 1.1555614
0.96823484 4.7335238 1.5325021
-4.137691 2.9695239 1.1187271
-3.021786 4.8007083 1.1265624
-1.3280602 7.3469386 1.1505841
0.95580029 4.7465453 1.5262729
-4.1599183 2.9613476 1.1179653
-3.022963 4.7693629 1.1284164
-1.3653222 7.4054232 1.1410798
0.942572 4.7597408 1.5215333
-4.1689177 2.9463286 1.1197528
-3.0355 4.754261 1.1281967
-1.3894557 7.3950596 1.1343724
0.92925858 4.7728915 1.5167738
-4.1695094 2.9254901 1.1210165
-3.0369904 4.7222867 1.1282731
-1.4145321 7.3896813 1.1297264
0.91801745 4.7956972 1.510112
-4.191319 2.9178228 1.1210938
-3.043391 4.6989417 1.127316
-1.4295272 7.3351927 1.1265445
0.90309662 4.7988372 1.5056682
-4.2221885 2.9141917 1.1200539
-3.0475488 4.671227 1.1286927
-1.4441584 7.2808762 1.1258672
0.8926968 4.8264985 1.5002675
-4.2957616 2.935245 1.110818
-3.066848 4.6627898 1.1247711
-1.4668444 7.2602296 1.1200925
0.87689501 4.8296418 1.4942757
-3.0633869 4.6281528 1.1272103
-1.471303 7.1620278 1.1231591
0.86518115 4.8523407 1.4889954
-4.2660699 2.8770473 1.1206741
-3.076735 4.6119123 1.1270276
-1.4858271 7.1125517 1.1223006
0.85030895 4.8603225 1.484304
-4.2708068 2.8585141 1.1230451
-3.0908206 4.6011171 1.1254056
-1.4989133 7.0581989 1.1219106
0.83513469 4.8631358 1.4782735
-4.3060484 2.8565321 1.1214913
-3.0800653 4.5532827 1.131246
-1.5105087 6.9989848 1.121999
0.82211798 4.8808045 1.473123
-4.3059092 2.8362739 1.1244198
-3.0878508 4.5345049 1.1298259
-1.5183002 6.9252172 1.1234057
0.80898196 4.8984299 1.4679421
-4.490181 2.9131582 1.102217
-3.0976219 4.5141196 1.1284379
-1.5301374 6.870688 1.1209624
0.7938543 4.9061623 1.46242
-4.4198813 2.855232 1.1141111
-3.1144667 4.5072584 1.1271745
-1.5368841 6.7918725 1.1230001
0.7814275 4.9286013 1.456949
-4.4111123 2.8291907 1.1164581
-3.1042962 4.4644108 1.129015
-1.5478774 6.7374673 1.1218809
0.76601154 4.9311352 1.4508462
-2.4994044 1.8208907 1.3603687
-3.1317086 4.4682899 1.1278938
-1.5599878 6.6983895 1.1228503
0.75491643 4.9532833 1.4468592
-3.134953 4.440125 1.1284767
-1.5699753 6.6336999 1.1216506
0.74053562 4.9757934 1.4397299
-4.4804025 2.8045411 1.1164664
-3.1478083 4.4297528 1.1277469
-1.5872871 6.6083603 1.1192237
0.72672558 4.9931374 1.4343716
-4.4759073 2.7808566 1.1199757
-3.1626594 4.4177036 1.127039
-1.5858288 6.5157676 1.1229862
0.71354634 5.0052881 1.4300247
-4.4932261 2.7691545 1.1216036
-3.1593018 4.3819256 1.1295891
-1.6059164 6.494679 1.1202346
0.69875103 5.0276814 1.4235646
-4.5108218 2.7565279 1.1223758
-3.1725776 4.3708501 1.1280062
-1.6212236 6.4645538 1.1194485
0.68457317 5.0397825 1.4175901
-4.5458593 2.7533255 1.1209806
-3.1992006 4.3745794 1.125118
-1.6303073 6.4202547 1.1168265
0.67188811 5.0566821 1.4121013
-4.5679007 2.7425976 1.1212339
-3.1979859 4.343317 1.1279978
-1.6405687 6.3654351 1.1173458
0.65518451 5.0690918 1.4068943
-4.598423 2.7367861 1.1195314
-3.2085357 4.3276682 1.1261067
-1.6534575 6.3253899 1.1175948
0.63994884 5.0811052 1.4000535
-4.5398135 2.6874123 1.1312261
-3.2307305 4.3218622 1.1243232
-1.6609586 6.2711563 1.1182091
0.62611312 5.1031241 1.3958029
-3.2625875 4.3339491 1.1211784
-1.6804957 6.2600021 1.1147137
0.61140239 5.1200633 1.3902121
-4.6776795 2.7104421 1.1196783
-3.2589493 4.2977142 1.123769
-1.6828213 6.1864705 1.1183358
0.5952068 5.1270108 1.3843969
-4.6714759 2.6888726 1.123165
-3.2582653 4.2718234 1.1243749
-1.691564 6.1471906 1.1176963
0.5825659 5.1485686 1.3784283
-4.679853 2.6711531 1.1250687
-3.2660294 4.2519369 1.1256304
-1.701104 6.0973153 1.1190987
0.56591666 5.1655579 1.3727636
-4.7150488 2.6665752 1.1246989
-3.2828271 4.2437358 1.1243713
-1.7092844 6.05796 1.1175473
0.55298907 5.1869698 1.3659031
-4.7233396 2.6486866 1.126613
-3.2871339 4.2200837 1.1261767
-1.715711 6.0035586 1.1185209
0.53912348 5.2084899 1.3598225
-4.7948995 2.6598995 1.1221097
-3.3011742 4.2075033 1.1254756
-1.7282187 5.9732399 1.117137
0.52254218 5.2152519 1.3555304
-4.7982483 2.6405327 1.1245636
-3.307826 4.187973 1.1250142
-1.7379246 5.9281716 1.1182487
0.50482821 5.2269878 1.3492613
-4.8338819 2.6342788 1.1243041
-3.3218005 4.1753888 1.1251692
-1.7475382 5.8934875 1.1183971
0.49198803 5.2532659 1.3435625
-4.8462548 2.6187394 1.1257306
-3.3451428 4.1743398 1.123662
-1.7593738 5.863142 1.1171175
0.47517622 5.2597895 1.3383958
-4.8773212 2.6101432 1.1260297
-3.3455522 4.1469049 1.1251684
-1.7586026 5.7950625 1.120792
0.45883879 5.2712078 1.3328667
-4.9079485 2.6021476 1.1254267
-3.3486114 4.1238184 1.1269721
-1.7777561 5.7883434 1.1171163
0.44293323 5.2875838 1.3277919
-4.9250875 2.5873075 1.1254494
-3.379174 4.1290936 1.122653
-1.7850634 5.7434359 1.1164939
0.42688861 5.3037834 1.3210231
-4.9605575 2.5809889 1.1271561
-3.3888941 4.1132011 1.1233535
-1.7976221 5.7178798 1.115817
0.41304678 5.3448062 1.3132156
-5.0050015 2.5780835 1.1251005
-3.3923275 4.0894842 1.1251671
-1.7970084 5.654593 1.1182642
0.39536795 5.3460484 1.3083136
-5.0169454 2.5627208 1.1275213
-3.4053063 4.0771642 1.1253129
-1.8116304 5.633431 1.1171488
0.37938294 5.3670902 1.301899
-5.076077 2.56318 1.124979
-3.4084597 4.0533886 1.1262748
-1.8169401 5.5890985 1.1185983
0.36407256 5.3980742 1.2955277
-5.1017737 2.5529935 1.1249981
-3.4385951 4.0588531 1.12365
-1.8336772 5.577579 1.1164877
0.34620067 5.399117 1.2905767
-5.1054306 2.5309522 1.1284723
-3.4347155 4.0279903 1.1265708
-1.8342719 5.5188332 1.1186332
0.34199536 5.584012 1.2710986
-5.1265168 2.5187635 1.1299598
-3.4647679 4.0330839 1.1222385
-1.8438725 5.4885864 1.1186376
0.31291896 5.4358625 1.2787488
-5.1904283 2.5197999 1.1270837
-3.4653628 4.0045843 1.1246244
-1.8532628 5.4530411 1.1192054
0.29623079 5.4565229 1.2712972
-5.2290106 2.5169458 1.1256979
-3.4791927 3.9979885 1.1250373
-1.8720911 5.4563465 1.1155628
0.28115267 5.4772143 1.2663727
-5.2414742 2.4988613 1.1282443
-3.4959598 3.9882517 1.1246338
-1.8688836 5.3935089 1.1193168
0.26449683 5.5028644 1.26016
-5.2861953 2.4937439 1.127422
-3.4907618 3.9579532 1.1258503
-1.8838609 5.3768773 1.1178408
0.24707395 5.5183582 1.2529955
-5.3266187 2.4856882 1.1271266
-3.5038514 3.9446678 1.1259996
-1.8943055 5.3512535 1.1174306
0.22850636 5.5139518 1.2483536
-5.3713989 2.4799786 1.1263874
-3.5342357 3.9494054 1.1250702
-1.8909187 5.2882624 1.1213244
-5.402154 2.4689271 1.1271104
-3.5437176 3.9325027 1.1257731
-1.8990686 5.25805 1.1215099
0.19331077 5.5647511 1.2348098
-5.4426184 2.4600592 1.1269249
-3.5458162 3.9085619 1.1258838
-1.9107162 5.2370744 1.120641
0.17587696 5.5900636 1.2284063
-5.4733658 2.4485705 1.1277065
-3.5581949 3.895751 1.1268743
-1.9155934 5.1973171 1.1219623
0.15824939 5.615231 1.2210758
-5.5041018 2.436882 1.128515
-3.5891173 3.8992586 1.124253
-1.9250311 5.1717248 1.121677
0.13994227 5.6254745 1.2159172
-5.5297861 2.4243419 1.1298068
-3.5868902 3.8726304 1.1266094
-1.9332119 5.1412024 1.1219656
0.12200454 5.6504989 1.2085062
-5.5793581 2.4186544 1.1288277
-3.6069963 3.8658125 1.1265016
-1.9595436 5.156878 1.1167794
0.10389455 5.6755309 1.2019413
-5.6390638 2.4138298 1.1269943
-3.6410675 3.872926 1.123327
-1.9608963 5.1128979 1.1187397
0.085374579 5.690536 1.19625
-5.6696467 2.4022355 1.1299998
-3.6208429 3.8288624 1.1284465
-1.9667038 5.0779614 1.1213591
0.067215465 5.7302732 1.1873204
-5.7286863 2.3986111 1.1272309
-3.658674 3.8391719 1.1255758
-1.9772927 5.0568047 1.1197473
0.047844879 5.7102876 1.184823
-5.7689013 2.388515 1.1273484
-3.667484 3.8217776 1.1245654
-1.9925361 5.0444946 1.117902
0.028190147 5.6552181 1.1838715
-5.814364 2.3787165 1.129181
-3.6832488 3.8118336 1.1250076
-2.0009279 5.0188317 1.1177354
0.0081957011 5.6151891 1.1833937
-5.8450828 2.365078 1.1302698
-3.7070553 3.8078489 1.1252143
-2.0140026 5.001997 1.1173217
-0.0094934897 5.8289833 1.1593682
-5.9090891 2.3615437 1.1283189
-3.7189329 3.7943089 1.1244965
-2.01193 4.9536562 1.1200082
-0.028860411 5.9229717 1.1438433
-5.9640269 2.3536551 1.1283911
-3.7426128 3.7899671 1.1229906
-2.0308073 4.950295 1.1170772
-0.047961861 5.7036562 1.1617892
-6.0090499 2.3435106 1.1283011
-3.7545586 3.7764325 1.1239908
-2.040647 4.9291363 1.116411
-0.067881808 5.847332 1.1422114
-6.0636296 2.3358991 1.127396
-3.7632532 3.7589588 1.125546
-2.0532386 4.9122138 1.1160355
-0.089480802 5.9612284 1.1272373
-6.08008 2.3167315 1.1310546
-3.7825704 3.7517426 1.124588
-2.0544281 4.8730197 1.117687
-0.1097424 5.9852047 1.1182723
-6.1397619 2.3088284 1.1298264
-3.7949347 3.7374055 1.1255947
-2.0659826 4.8564324 1.1173259
-0.12919188 5.9545794 1.1167428
-6.2088399 2.3043325 1.1289326
-3.81429 3.7300835 1.1255016
-2.0845647 4.8528242 1.1144161
-0.14905903 5.9537215 1.1121923
-6.2251172 2.2844915 1.1315799
-3.818877 3.709182 1.1267395
-2.0852184 4.8137784 1.1169592
-0.16929743 5.9677014 1.1060939
-6.2943292 2.2792559 1.1319542
-3.8458264 3.7080626 1.1255575
-2.0994012 4.8013263 1.1168747
-0.18805535 5.9270205 1.1066346
-6.3294616 2.2653813 1.1330125
-3.8772078 3.7092783 1.1238455
-2.1083713 4.7801819 1.1171215
-0.20761698 5.89112 1.1057804
-6.3842072 2.2553957 1.1336299
-3.8811624 3.6889584 1.1259398
-2.1069036 4.7363219 1.1194822
-0.22579646 5.8502145 1.1055051
-6.4437823 2.2463121 1.1339161
-3.8817041 3.6648495 1.1285788
-2.1155348 4.7152019 1.119758
-0.24248306 5.7794476 1.1084892
-6.4936471 2.2342627 1.133912
-3.9202981 3.6726189 1.1257918
-2.1322119 4.71209 1.1168747
-0.25857458 5.7484469 1.1072855
-6.5438919 2.2207644 1.1351351
-3.9400575 3.6638899 1.1248538
-2.1443574 4.6946187 1.1165911
-0.27968767 5.7320871 1.104551
-6.6130753 2.212925 1.1336619
-3.9554391 3.6527169 1.125324
-2.1488695 4.6642365 1.1180786
-0.2959213 5.6760674 1.1061746
-6.6777225 2.2034779 1.1362351
-3.9753799 3.6439869 1.1270143
-2.1654911 4.6611614 1.1168227
-0.31268597 5.6697249 1.102388
-6.7082376 2.185164 1.1380144
-3.9828732 3.6265376 1.1285635
-2.1666989 4.6267557 1.1189138
-0.32859266 5.6186733 1.1044894
-6.7729988 2.1737101 1.1383584
-4.02213 3.6326058 1.1240727
-2.1744404 4.6000633 1.1198555
-0.34614286 5.5573034 1.1060377
-6.8182654 2.1584074 1.1427288
-4.0297022 3.6151407 1.1273865
-2.1821809 4.5787954 1.1193945
-0.36288419 5.5310531 1.1063666
-6.9165587 2.1551907 1.1381669
-4.0611677 3.6147962 1.1239747
-2.2046378 4.5834703 1.1161591
-0.37874749 5.4944429 1.1043793
-6.9901571 2.1481357 1.1367716
-4.0804758 3.6061523 1.1248139
-2.2084873 4.5586281 1.1170939
-0.39457858 5.4730072 1.1033418
-7.0694742 2.1393406 1.1388714
-4.0962577 3.593652 1.1253115
-2.2180624 4.5362601 1.1174748
-0.41245064 5.4462767 1.1020678
-7.1388226 2.127739 1.1380407
-4.1074872 3.5788171 1.1263354
-2.2264197 4.5201397 1.1172265
-0.42510852 5.3999538 1.1031142
-7.2134161 2.1154912 1.1382068
-4.1313295 3.5722158 1.1275536
-2.2381907 4.5021763 1.1178104
-0.4425039 5.3632531 1.1039554
-7.2976813 2.1061089 1.1403471
-4.1585188 3.5690131 1.1264699
-2.2526078 4.4939084 1.1163758
-0.45753255 5.3316607 1.1042372
-7.3720388 2.0940194 1.1407379
-4.1701837 3.5532281 1.1275063
-2.259007 4.4731097 1.1175439
-0.47067243 5.3000789 1.1037105
-7.4122195 2.0743158 1.1436627
-4.1974635 3.5498223 1.1273303
-2.2666116 4.4514503 1.1179442
-0.4875069 5.2831573 1.1023115
-7.5453105 2.0732713 1.1414337
-4.2292695 3.5483611 1.125752
-2.2796798 4.437911 1.1163573
-0.50207222 5.236258 1.1028605
-7.5707936 2.0497479 1.1455505
-4.2524939 3.5416775 1.1252221
-2.2907696 4.4257712 1.117106
-0.51354551 5.1949906 1.1061349
-7.6696362 2.0404506 1.1446514
-4.2763219 3.5341847 1.1256104
-2.3036573 4.4120679 1.1147432
-0.5266335 5.1330438 1.1078396
-7.763876 2.0281608 1.1442255
-4.291409 3.5215375 1.1261337
-2.3045585 4.3828669 1.118726
-0.5434829 5.1458001 1.102932
-7.8335409 2.0119658 1.1483378
-4.3112125 3.5110278 1.127964
-2.3142025 4.365612 1.1201011
-0.55581516 5.1041746 1.1055334
-7.9613824 2.0088627 1.1458962
-4.3467956 3.512378 1.1268274
-2.3229949 4.3485675 1.1199186
-0.56921387 5.067162 1.1059792
-8.0610323 1.9940298 1.1484253
-4.354135 3.4930646 1.1283991
-2.3375056 4.339592 1.1185184
-0.58276767 5.0402613 1.1068224
-8.1250267 1.9779303 1.1490213
-4.3805146 3.4900112 1.1283
-2.3409567 4.3140378 1.1195788
-0.59876579 5.0277977 1.1042643
-8.2535963 1.9697092 1.1485342
-4.4090514 3.4838221 1.1291616
-2.3502083 4.2967219 1.1209612
-0.61390084 5.0154753 1.1025033
-8.3476877 1.9546996 1.1489452
-4.4285932 3.4725311 1.1282861
-2.3691542 4.2965598 1.1190984
-0.625117 4.968483 1.1043711
-8.4616537 1.9423308 1.1512491
-4.4934735 3.4922473 1.1246022
-2.383462 4.2874088 1.1177039
-0.64064038 4.9610896 1.1028093
-8.5459061 1.9243114 1.1525588
-4.4967489 3.4698913 1.1294858
-2.3872068 4.2616067 1.1203277
-0.6540274 4.9388089 1.1023755
-8.6549664 1.9096392 1.1555518
-4.5199604 3.4616635 1.1281143
-2.4060709 4.2611632 1.117692
-0.66658944 4.9064674 1.1024792
-8.7737265 1.8956743 1.1551028
-4.5601215 3.4642625 1.127553
-2.4176013 4.2477851 1.117691
-0.67816347 4.8743086 1.1033907
-8.8581266 1.8756821 1.1599385
-4.6009488 3.4658673 1.1279826
-2.4285591 4.235043 1.1199892
-0.69178534 4.8521118 1.1053427
-8.9671898 1.8587239 1.1635456
-4.6160626 3.4519556 1.1304663
-2.445344 4.2298179 1.1179794
-0.7029283 4.8198013 1.1055562
-9.041482 1.8359854 1.1661177
-4.656682 3.4529011 1.1271548
-2.4485066 4.2038989 1.1198437
-0.72009921 4.8217158 1.102034
-9.0165682 1.8020731 1.1773915
-4.6973271 3.454726 1.1295956
-2.4619117 4.1950369 1.1199837
-0.73092479 4.7895379 1.103816
-8.9524469 1.7598326 1.1923082
-4.7378945 3.4561815 1.1301799
-2.487071 4.2023482 1.1191831
-0.74390638 4.7669964 1.1043262
-8.9626675 1.7612509 1.198071
-4.7764373 3.4800875 1.1316589
-2.5176685 4.2480087 1.1154833
-0.75301099 4.8212633 1.100919
-9.0272846 1.8036371 1.1927011
-4.789567 3.5158472 1.1305778
-2.5147014 4.2745352 1.1175621
-0.74141437 4.849009 1.1028588
-9.0668354 1.8429226 1.1854327
-4.7702136 3.5279393 1.131392
-2.5120811 4.3004088 1.1173315
-0.73040283 4.8815269 1.1034536
-9.115941 1.8855742 1.1791764
-4.7503123 3.5407517 1.1321994
-2.5004911 4.3142896 1.1189318
-0.71992821 4.9238439 1.1020619
-9.1056843 1.9180151 1.172902
-4.7560554 3.5687428 1.1301436
-2.4976459 4.3402805 1.119523
-0.70616466 4.941617 1.1046717
-9.1352663 1.9533495 1.1644579
-4.7317815 3.5786803 1.1304525
-2.4884644 4.3581295 1.1189572
-0.69886893 5.0034046 1.1009063
-9.1100521 1.9834965 1.1606034
-4.7373042 3.6067278 1.1283913
-2.4773161 4.3716092 1.1213803
-0.6853407 5.0309529 1.1015817
-9.0895758 2.0142565 1.1548891
-4.7009258 3.6074333 1.1291753
-2.473217 4.3977246 1.1188323
-0.67029697 5.0434189 1.1025705
-9.0199261 2.0367453 1.1552095
-4.6974969 3.6308682 1.1290379
-2.46117 4.4115081 1.120471
-0.65846545 5.0857325 1.1022657
-8.9205322 2.0536838 1.1541305
-4.6652956 3.634002 1.129353
-2.4640675 4.450881 1.1177403
-0.64353949 5.113277 1.1030557
-8.8308849 2.0716016 1.1510497
-4.6533155 3.6516905 1.1282296
-2.458323 4.4721727 1.1174258
-0.63224769 5.145185 1.1025017
-8.7410479 2.0904257 1.1496562
-4.6336498 3.6630023 1.1290519
-2.4440348 4.4812765 1.1196947
-0.62020177 5.192348 1.1017929
-8.6663818 2.1097965 1.1505622
-4.6258144 3.6834946 1.1293873
-2.4444399 4.5161238 1.1176147
-0.60620457 5.2196817 1.103567
-8.5717125 2.1249156 1.1466429
-4.5893879 3.6831131 1.1282765
-2.4427514 4.54636 1.1161484
-0.59258819 5.2516112 1.1023185
-8.492115 2.1422362 1.1480076
-4.5610199 3.6892717 1.1310331
-2.422441 4.5473838 1.1204213
-0.57906431 5.2937622 1.1024134
-8.3878317 2.1542253 1.1479757
-4.5697641 3.7200403 1.127492
-2.4179058 4.573278 1.1187495
-0.56606078 5.3357897 1.1025968
-8.2933712 2.1673982 1.1474671
-4.5533171 3.7344294 1.1258941
-2.407521 4.5911279 1.1190612
-0.55222213 5.3727531 1.1025923
-8.2575359 2.1931493 1.1462536
-4.5051656 3.7250602 1.1311044
-2.3996143 4.6134238 1.1204416
-0.54188102 5.4542332 1.0974622
-8.1684532 2.2033191 1.1441751
-4.472621 3.727632 1.1324382
-2.3995636 4.6478677 1.116815
-0.52437729 5.46139 1.1001769
-8.0588665 2.2145128 1.146363
-4.4890022 3.7641468 1.1269503
-2.3913407 4.6701918 1.1182346
-0.50778157 5.4784718 1.1026267
-7.9937553 2.2313826 1.1443672
-4.468627 3.7754171 1.1287361
-2.378726 4.6832871 1.1191655
-0.49477541 5.5451469 1.1003351
-7.8659058 2.2314065 1.1480975
-4.4606867 3.7945197 1.1271403
-2.3726192 4.7097435 1.1183742
-0.47951338 5.5819302 1.1006461
-7.8154497 2.2503662 1.1453233
-4.4326644 3.7988105 1.1280023
-2.3694923 4.7401485 1.1170317
-0.46524954 5.6334262 1.0984616
-7.7792664 2.2735894 1.1416116
-4.3961954 3.7978151 1.1308011
-2.3559151 4.7537718 1.1196538
-0.44940591 5.6701293 1.0988971
-7.6995401 2.2852688 1.1409652
-4.3801847 3.8107173 1.1301973
-2.3643847 4.8059998 1.1155142
-0.43201312 5.7020011 1.1008335
-7.6247864 2.297538 1.1414466
-4.3714981 3.8303101 1.1285998
-2.3551769 4.8281827 1.1153506
-0.41565368 5.7386084 1.1013889
-7.5548162 2.3103979 1.1403134
-4.3435268 3.8340352 1.129483
-2.3441949 4.8454909 1.1149147
-0.39903235 5.7750669 1.1010883
-7.4654503 2.3181362 1.1406527
-4.3358836 3.8520155 1.1278996
-2.3278089 4.8546715 1.1181574
-0.38148668 5.8017535 1.1037439
-7.4150014 2.3346806 1.1396497
-4.3197203 3.8646376 1.1273016
-2.323658 4.8851852 1.1169078
-0.36499989 5.8630753 1.1018136
-7.3304057 2.3438249 1.1424534
-4.3058357 3.8826096 1.1280786
-2.3208532 4.9205303 1.1151086
-0.34869403 5.9193368 1.1005172
-7.2611394 2.3521478 1.1416782
-4.2868452 3.8905292 1.1279925
-2.3049402 4.9292264 1.1183954
-0.33060861 5.9508281 1.1028631
-7.200386 2.3675153 1.1415483
-4.2766099 3.9113276 1.1263795
-2.2903848 4.9424105 1.1185349
-0.31262922 6.0068426 1.0998225
-7.1643238 2.3861539 1.1384109
-4.2525063 3.9174571 1.1267831
-2.2855806 4.9729638 1.1173398
-0.29328141 6.0234132 1.1047958
-7.0707469 2.3881743 1.1409477
-4.2406297 3.9320848 1.1256981
-2.2820394 5.0083714 1.115602
-0.27513254 6.0695305 1.1048399
-7.0340176 2.4085722 1.1379205
-4.2309198 3.9521313 1.1259774
-2.2724593 5.0302672 1.1172876
-0.25464961 6.0658855 1.1099936
-6.9599514 2.4134204 1.1366618
-4.2023945 3.9556057 1.1278198
-2.2684617 5.0656366 1.1147128
-0.23564976 6.101933 1.1111459
-6.8999705 2.4242313 1.1381192
-4.1821108 3.9644532 1.1277314
-2.2563825 5.0830717 1.1169832
-0.21427423 6.1031399 1.115814
-6.8534913 2.4409196 1.1347758
-4.1726975 3.9834554 1.1261339
-2.2584906 5.1318965 1.1128109
-0.19371851 6.0992589 1.1209817
-6.7841759 2.4470196 1.135874
-4.1650105 4.0002751 1.1245552
-2.2438762 5.1446676 1.113883
-0.17117801 6.0157032 1.1339283
-6.7290378 2.4579682 1.1371061
-4.1390829 4.0079103 1.125892
-2.2421219 5.1845961 1.1144142
-0.1519399 6.0565209 1.1356338
-6.6785274 2.4698629 1.135576
-4.1340013 4.0294309 1.1256741
-2.2222283 5.1887121 1.1165665
-0.13062188 5.9976525 1.1459998
-6.6564641 2.4910328 1.1329805
-4.1330738 4.0533462 1.1230803
-2.2221098 5.2329988 1.114826
-0.10921728 5.9685636 1.1534183
-6.5821314 2.4952519 1.1346954
-4.0925832 4.047009 1.1264381
-2.218751 5.2731252 1.1127372
-0.089968503 6.0339508 1.1518836
-6.4934592 2.4945984 1.1364855
-4.0902896 4.0722795 1.1238297
-2.2014952 5.281363 1.1152941
-0.068782754 5.8852978 1.1713794
-6.4859972 2.5181482 1.1328248
-4.0548077 4.0673738 1.1257721
-2.1915877 5.3080258 1.115738
-6.425736 2.526551 1.133545
-4.0573993 4.0945392 1.1236045
-2.1782415 5.3251462 1.1163427
-0.029601304 5.7717271 1.1908449
-6.3663745 2.5311403 1.1320254
-4.0442853 4.1091805 1.122515
-2.1720018 5.3606896 1.1139333
-0.010436261 5.7621222 1.1961454
-6.3344197 2.5489054 1.1315948
-4.0114112 4.1086383 1.1248815
-2.1584864 5.3780432 1.1173199
0.0086977407 5.757422 1.2009825
-6.23629 2.5439081 1.1357486
-3.9940615 4.1206074 1.12616
-2.1566908 5.4224448 1.1148443
0.028548444 5.7378569 1.2089461
-6.1914573 2.5519893 1.1355064
-3.996897 4.1470914 1.1239965
-2.1476114 5.4483562 1.1154008
0.045671303 5.7280512 1.2142059
-6.202003 2.5828269 1.1303235
-3.9743631 4.1568527 1.1239003
-2.1357942 5.4753637 1.1159515
0.066047512 5.703094 1.2198166
-6.1333303 2.5825472 1.129969
-3.9331107 4.1429019 1.1278204
-2.1399064 5.5332427 1.1120261
0.082536779 5.673234 1.2267512
-6.0779958 2.5898564 1.1306732
-3.9216352 4.1625767 1.1271379
-2.1180263 5.5373321 1.1151755
0.1027946 5.6582336 1.2332221
-6.0324826 2.5989561 1.1305908
-3.9010177 4.1699152 1.1270744
-2.1092906 5.5681853 1.1152964
0.12116238 5.6432757 1.240569
-6.0152287 2.6175418 1.1279961
-3.8942914 4.1915541 1.1258957
-2.1107695 5.6270328 1.1124068
0.13922296 5.6230416 1.2456329
-5.9693499 2.6271703 1.1279771
-3.8821685 4.2043233 1.1257563
-2.103317 5.6572146 1.1126084
0.15520599 5.5979719 1.2528629
-5.9191585 2.6337838 1.1284384
-3.8631423 4.2168832 1.1251625
-2.0801091 5.6614838 1.1157885
0.17559838 5.577497 1.2578417
-5.878376 2.6434264 1.1280799
-3.8532252 4.2343359 1.1244977
-2.0705695 5.6923447 1.116007
0.19053723 5.4975224 1.2702564
-5.8138304 2.6453025 1.1299363
-3.8367491 4.2441645 1.1248602
-2.0590086 5.7132339 1.117257
0.20797299 5.5169334 1.2719885
-5.7729278 2.6542368 1.1275315
-3.833813 4.2685084 1.1231738
-2.0571444 5.7674437 1.1130946
0.2267762 5.5263033 1.2753923
-5.7884016 2.6838844 1.1241288
-3.7934053 4.2599058 1.126569
-2.0345051 5.7713304 1.1182704
0.24629943 5.515728 1.282094
-5.695972 2.6742663 1.1287885
-3.7868044 4.2806649 1.1253924
-2.0277405 5.8114686 1.1176051
0.26251006 5.4802237 1.2898324
-5.6645021 2.6859818 1.1266816
-3.7653992 4.2879887 1.1262505
-2.0267096 5.8704295 1.1130403
0.28033504 5.4743824 1.2935115
-5.6156416 2.6874635 1.1274797
-3.7472057 4.2918954 1.1262254
-2.0196218 5.899919 1.1134453
0.29574826 5.4587059 1.2988099
-5.588161 2.7025044 1.1260276
-3.7314665 4.3074017 1.126047
-2.0006595 5.9178033 1.115257
0.31208134 5.4329696 1.3056663
-5.5614963 2.715471 1.1256453
-3.7384808 4.3422771 1.1228181
-1.9945707 5.9626822 1.1142299
0.32858595 5.4120822 1.3112557
-5.5212221 2.7217617 1.1256249
-3.6976285 4.3267407 1.1286048
-1.9884084 6.002223 1.1137372
0.34404385 5.4013314 1.3178039
-5.452868 2.7176285 1.1284028
-3.6801655 4.3363996 1.1271223
-1.9658393 6.0052643 1.1170465
0.35987782 5.3752942 1.3228379
-5.4446874 2.7373803 1.1262407
-3.6760504 4.3613729 1.1281835
-1.9606889 6.0549579 1.1166595
0.37682784 5.3642869 1.329313
-5.3945031 2.7410109 1.1272439
-3.6550679 4.3673148 1.1272078
-1.9502984 6.0904799 1.1167115
0.392784 5.343102 1.3339311
-5.3722682 2.7547495 1.1244825
-3.6369469 4.3775535 1.1275548
-1.9419155 6.1357551 1.1158512
0.4095318 5.3319092 1.339514
-5.2993631 2.7482646 1.1299267
-3.6318171 4.4030328 1.1276881
-1.9290719 6.1720395 1.1169847
0.42596781 5.300683 1.3472452
-5.2862349 2.7653861 1.1252962
-3.6168485 4.416656 1.1256801
-1.9116341 6.1886659 1.1189766
0.44147751 5.2793784 1.3525981
-5.2504177 2.77279 1.1260407
-3.6027412 4.4298997 1.1273637
-1.9106475 6.2522101 1.116408
0.45674318 5.2731309 1.3577782
-5.2050056 2.7768769 1.1267744
-3.5925589 4.4460707 1.1276234
-1.8990214 6.2878294 1.1176759
0.47306401 5.2615862 1.3616003
-5.1608973 2.7780108 1.128545
-3.5647571 4.4441772 1.1276681
-1.8931837 6.3421202 1.1139901
0.48713157 5.2302475 1.3683363
-5.1610465 2.8015032 1.1235424
-3.5563972 4.4650912 1.1264776
-1.8784957 6.3733196 1.1157765
0.50381589 5.22365 1.373445
-5.0979128 2.7958717 1.1263336
-3.5320632 4.4668274 1.1278547
-1.8675708 6.4135842 1.1156379
0.51869845 5.2021203 1.379469
-5.0712929 2.8061619 1.126233
-3.5236185 4.4877419 1.1275824
-1.8534386 6.4443312 1.1164252
0.53342927 5.1805363 1.385453
-5.0487165 2.8191729 1.1246884
-3.5124166 4.5042295 1.1269112
-1.8405749 6.4799132 1.1178765
0.54924101 5.1687584 1.389987
-4.9805713 2.8122225 1.1290506
-3.4958465 4.518827 1.127648
-1.8229157 6.5116448 1.1197778
0.5672521 5.1617551 1.395822
-4.9858289 2.8355508 1.1236427
-3.4826407 4.5302739 1.1275029
-1.8158656 6.560607 1.1167322
0.58195716 5.1549692 1.3992367
-4.9500937 2.8409002 1.1236629
-3.4705427 4.5472469 1.1268233
-1.8078432 6.6152735 1.1165537
0.59623647 5.1332116 1.4059161
-5.0130486 2.8936207 1.1136094
-3.4512684 4.5572863 1.1280783
-1.7873218 6.6318846 1.1187807
0.60965419 5.1064153 1.4120224
-3.4436562 4.5767741 1.1269033
-1.7814006 6.6961384 1.117841
0.62571305 5.0992551 1.4153771
-4.8379436 2.8551836 1.1262755
-3.4289007 4.5893087 1.1276634
-1.7669648 6.7316499 1.1195379
0.63955647 5.0773029 1.4211415
-4.8112044 2.8638847 1.1244718
-3.4109151 4.5979686 1.1289326
-1.7602379 6.7958574 1.1176059
0.65549749 5.0701141 1.4260701
-4.7846322 2.8725159 1.1245437
-3.3984866 4.6147251 1.1282533
-1.7491511 6.8457756 1.1181363
0.67062533 5.0579295 1.4312491
-4.7619452 2.8839188 1.1222684
-3.3883655 4.6357989 1.1261325
-1.7327102 6.8813663 1.117677
0.68329901 5.0308576 1.4363805
-4.7353692 2.8922348 1.1223743
-3.3866177 4.662899 1.1239349
-1.7171621 6.9168224 1.119548
0.69981933 5.0284286 1.4410048
-4.6603527 2.8749616 1.1282117
-3.3684199 4.6713572 1.1252079
-1.7139198 7.0003762 1.1161727
0.71225971 5.0063615 1.4466187
-4.6241956 2.879873 1.1293976
-3.3542576 4.6892338 1.1254374
-1.6989591 7.0406489 1.1177417
0.72532851 4.9841232 1.4521861
-2.5144587 1.8173012 1.3758773
-3.3281512 4.6847219 1.1282495
-1.6789254 7.0666909 1.1205662
0.73739684 4.9569592 1.4587308
-4.5884576 2.9048343 1.126758
-3.3200138 4.7101841 1.1265363
-1.6634392 7.106709 1.1198583
0.75275505 4.9493575 1.4627395
-4.5226555 2.8906155 1.1308253
-3.3092942 4.7250409 1.1268057
-1.6583635 7.1904645 1.1179314
0.765396 4.92699 1.4681965
-4.6721745 2.9904363 1.1098491
-3.2993674 4.7455072 1.1265453
-1.6410315 7.2258182 1.1200931
0.78061998 4.9193163 1.4729524
-4.5528574 2.9497099 1.1211902
-3.2899652 4.7652307 1.1244344
-1.6268805 7.2808127 1.1207044
0.79299247 4.8968296 1.4775708
-4.5130177 2.9495773 1.1212435
-3.2798245 4.7856688 1.1241759
-1.6214043 7.3693142 1.1162056
0.81091535 4.9037647 1.4816599
-4.4860973 2.9571681 1.1214913
-3.261241 4.7935634 1.1245168
-1.5986388 7.3851771 1.1200867
0.82234091 4.8813663 1.4870113
-4.4072676 2.9352028 1.1282322
-3.229975 4.7861285 1.1278085
-1.5867215 7.4495969 1.1201143
0.83338779 4.8538852 1.4925171
-4.6196814 3.0742111 1.096934
-3.2262654 4.8136539 1.1246831
-1.5602077 7.4556861 1.1223406
0.84823924 4.8459258 1.4964231
-4.4278736 2.9894257 1.1187402
-3.2070274 4.8221149 1.1278056
-1.5370115 7.4713454 1.1262853
0.86408716 4.8428578 1.5016618
-4.3706121 2.979394 1.122861
-3.1943185 4.83779 1.1280633
-1.514761 7.4918022 1.1298653
0.8778348 4.8299241 1.5065055
-4.3613286 2.9950502 1.1192672
-3.1689508 4.8377481 1.1284748
-1.4903188 7.5022388 1.131734
0.89043099 4.8120332 1.5107474
-4.3223686 2.9927747 1.1212742
-3.1619921 4.8613615 1.1277201
-1.4618182 7.4932418 1.1375841
0.90326089 4.7991962 1.5163144
-4.296052 2.9984913 1.1225004
-3.1491423 4.876986 1.1289101
-1.428908 7.4494252 1.1460288
0.91632563 4.7912874 1.5194155
-4.2561936 2.9971404 1.1228306
-3.1468713 4.9090686 1.1252792
-1.3883848 7.3969488 1.1563056
0.92901409 4.7681141 1.525261
-4.2470083 3.01248 1.1210054
-3.136642 4.9286389 1.125038
-1.3518802 7.3434668 1.1653066
0.94230592 4.7549562 1.5299966
-4.224421 3.0208797 1.1200032
-3.1341171 4.9609456 1.1232818
-1.3167055 7.2945271 1.1714702
0.95550162 4.7417316 1.5339595
-4.2317829 3.0470059 1.1159281
-3.1094177 4.9601035 1.1255605
-1.2764387 7.2162595 1.1833107
0.96978623 4.7333446 1.5385052
-4.1756563 3.0341504 1.1211493
-3.100868 4.9840612 1.122932
-1.2444361 7.1665392 1.1893882
0.98138273 4.7204027 1.5431992
-4.1529975 3.0420747 1.1193494
-3.0762227 4.9831171 1.1261506
-1.2064354 7.1077609 1.1972604
0.99268728 4.6971831 1.5481389
-4.1181412 3.0414298 1.1201235
-3.0646968 5.0028973 1.1240262
-1.1757756 7.0678363 1.2036984
1.0053059 4.6890211 1.5526463
-4.1252689 3.0673981 1.1160401
-3.0511553 5.0181699 1.1242937
-1.1476544 7.0477929 1.2109931
1.0156291 4.6659169 1.5575262
-4.0863795 3.0639486 1.1190871
-3.0368047 5.0340104 1.1254971
-1.1149592 7.0131621 1.2181076
1.0334923 4.6666303 1.5624669
-4.0637298 3.0713367 1.1173568
-3.0257783 5.0531793 1.1233789
-1.0864134 6.9877715 1.2233708
1.0453928 4.6532927 1.5663118
-4.0290093 3.0699837 1.1182178
-2.9975405 5.0480833 1.1261467
-1.0541332 6.9376235 1.2302957
1.055355 4.6300673 1.5703683
-4.0274143 3.090461 1.1144533
-2.9864457 5.0672331 1.1249721
-1.0260775 6.911891 1.2343634
1.0651792 4.6068501 1.5758605
-3.976558 3.0774157 1.1185186
-2.9745021 5.0869589 1.1247333
-0.9993338 6.8860197 1.2406617
1.0813258 4.6128831 1.578478
-3.9795105 3.0997627 1.1141859
-2.9524477 5.0893211 1.1255614
-0.97021335 6.8504024 1.2486831
1.0896118 4.5847802 1.5840232
-3.9444833 3.0984154 1.1151307
-2.9429402 5.1129842 1.1229324
-0.94064879 6.8094182 1.2525429
1.1003968 4.5662646 1.5878593
-3.9142742 3.0990088 1.1171442
-2.9235985 5.1195674 1.1251497
-0.91209561 6.7734599 1.2593565
1.1131053 4.5575347 1.5914896
-3.8793023 3.097168 1.117335
-2.9006763 5.1220984 1.1250254
-0.88449752 6.7422428 1.2647035
1.1250929 4.5437799 1.5966486
-3.8360753 3.0895166 1.117964
-2.8785343 5.1239409 1.1239723
-0.85647953 6.7058167 1.2681664
1.1383736 4.5347528 1.5995251
-3.8098705 3.0920241 1.116261
-2.8635299 5.139051 1.1232876
-0.8315236 6.6990957 1.2696817
1.1501789 4.5208874 1.6024758
-3.7639215 3.060961 1.1158162
-2.8134449 5.0575595 1.1217432
-0.83152771 6.6985259 1.2610155
1.1529856 4.5304217 1.5986851
-3.7564013 3.0360701 1.1160271
-2.806185 5.0089898 1.1228646
-0.85564947 6.7150588 1.2533764
1.1417983 4.544034 1.5920755
-3.7783532 3.0300055 1.1143111
-2.8117611 4.9815264 1.1205308
-0.88436264 6.7559013 1.2418265
1.1256646 4.543417 1.5864682
-3.7836559 3.0128372 1.1142613
-2.8020558 4.9284582 1.1222956
-0.9092111 6.7670383 1.2333332
1.113667 4.5571485 1.5805564
-3.7926083 2.9990327 1.113593
-2.7912743 4.8760991 1.1250148
-0.94057745 6.8225694 1.2227453
1.1022944 4.5706539 1.5753423
-3.8061793 2.9872932 1.1131001
-2.8077157 4.8651562 1.1216016
-0.966506 6.8384728 1.214885
1.0901241 4.5843029 1.5693785
-3.8068445 2.9681571 1.1152254
-2.8098967 4.8338513 1.1217399
-0.99481434 6.8691325 1.2070181
1.081848 4.6124034 1.5644825
-3.8161318 2.9536662 1.1153452
-2.8092148 4.7985125 1.1233243
-1.0248924 6.9094319 1.1972398
1.0688592 4.6209645 1.558573
-3.8252847 2.9390836 1.1146818
-2.8226674 4.7834334 1.1213706
-1.0560701 6.9546738 1.1892667
1.0538228 4.6248364 1.5527939
-3.842613 2.9305656 1.1151382
-2.8160257 4.7397213 1.1223086
-1.0948218 7.0438809 1.1755807
1.0425956 4.6431861 1.5480605
-3.8601069 2.9211187 1.1132478
-2.8099673 4.6958852 1.1259228
-1.1399978 7.167377 1.160224
1.0331949 4.6661158 1.541657
-3.8562853 2.8993943 1.1167655
-2.8139181 4.668961 1.1256385
-1.1743256 7.2217188 1.1488167
1.0167775 4.6650324 1.5374724
-3.8697014 2.8874102 1.1178428
-2.824683 4.64923 1.1234313
-1.1987777 7.2171397 1.1443094
1.0040042 4.6783776 1.5313307
-3.8821886 2.8766458 1.118127
-2.824909 4.6188941 1.1254503
-1.2258399 7.2271886 1.1386337
0.99309009 4.6963954 1.526481
-3.9085472 2.8714149 1.1158199
-2.8327265 4.5953231 1.1264029
-1.2476137 7.2075152 1.1329315
0.98249024 4.7193666 1.5199351
-3.9124708 2.855402 1.1173227
-2.8381944 4.5730591 1.1256235
-1.2720008 7.2025619 1.1272432
0.97059393 4.7374969 1.5150205
-3.938015 2.8512831 1.1150091
-2.849901 4.5583696 1.1229048
-1.2944998 7.1876264 1.1211811
0.95470631 4.7359109 1.5093019
-3.9512966 2.8389051 1.1161053
-2.8509016 4.5271759 1.1249824
-1.3133345 7.1481199 1.1195434
0.94151556 4.749084 1.5045329
-3.9606457 2.8232815 1.117813
-2.8523958 4.4955425 1.1270741
-1.3239723 7.0745745 1.1208154
0.9315685 4.7768259 1.499157
-3.977107 2.8144736 1.1159196
-2.8528988 4.4642925 1.1274796
-1.3389927 7.0252762 1.1178033
0.91812938 4.7898612 1.4928141
-3.9990611 2.8069203 1.1174144
-2.8658395 4.4548526 1.1267742
-1.3526855 6.9712696 1.117594
0.9064483 4.807621 1.4877532
-4.0462189 2.8143847 1.1121284
-2.8601809 4.4156332 1.1283284
-1.3557974 6.8684859 1.1216731
0.89284962 4.8206248 1.4828807
-2.8786037 4.4081912 1.1270953
-1.3643926 6.7949176 1.1222165
0.87811518 4.8286624 1.4774417
-4.0242743 2.7626321 1.1193464
-2.8860085 4.390028 1.1258532
-1.3819692 6.765192 1.1190026
0.86333299 4.8366437 1.4719915
-4.0894599 2.7785501 1.1133097
-2.8940923 4.3715229 1.1262963
-1.3950615 6.7160592 1.1186731
0.8515228 4.8592792 1.4666067
-4.1112547 2.770215 1.1132611
-2.8967648 4.3445759 1.1278793
-1.4121466 6.6811624 1.1160041
0.83536178 4.8571777 1.4608139
-4.1195588 2.7553704 1.1149944
-2.9106302 4.3339906 1.1271974
-1.416829 6.598012 1.1188818
0.82526892 4.889524 1.4548839
-4.1281924 2.7397814 1.1167327
-2.9280317 4.3266363 1.124293
-1.4254205 6.5342255 1.1190137
0.81020296 4.8973341 1.4501271
-2.9205949 4.2884007 1.1275928
-1.4370124 6.4850969 1.1189628
0.79602081 4.9099913 1.4451088
-4.1405067 2.7069035 1.1207894
-2.9257596 4.2654576 1.1286305
-1.4505894 6.4456515 1.1180676
0.78172898 4.9225216 1.438516
-4.2014031 2.7195218 1.1155028
-2.9374604 4.2496872 1.1268951
-1.4661012 6.4107771 1.1167731
0.76814789 4.9349346 1.4334483
-2.497858 1.819414 1.3424401
-2.9442284 4.2317448 1.128178
-1.4767216 6.3614335 1.1147931
0.75372022 4.9474397 1.4283671
-2.9589624 4.2199678 1.1275175
-1.4821602 6.2929769 1.1168363
0.74178892 4.9746451 1.4224442
-4.2431369 2.6827981 1.1167926
-2.9778342 4.2172618 1.1240456
-1.4851477 6.2251658 1.1199707
0.72952306 4.9916644 1.4162288
-4.2644291 2.6741655 1.1168137
-2.9756258 4.1870637 1.1262486
-1.5059063 6.21944 1.116071
0.71560597 5.0089474 1.410781
-4.294806 2.6690013 1.1140338
-2.9938946 4.1784182 1.1242015
-1.5095407 6.1407318 1.1172625
0.70076114 5.0262222 1.4037242
-4.3029108 2.6535738 1.1174688
-2.9902425 4.1494713 1.1280323
-1.523895 6.1161356 1.1173291
0.68505257 5.0285826 1.4006811
-4.3244543 2.6437764 1.1166917
-3.0070715 4.1417031 1.1251621
-1.5383233 6.0807347 1.1143851
0.67156255 5.0556021 1.3929707
-4.3416009 2.6317265 1.1173291
-3.0278559 4.1373825 1.124162
-1.5479739 6.03653 1.1154401
0.65568733 5.0628138 1.3880173
-4.3538775 2.6181796 1.1185391
-3.0319996 4.114388 1.1252339
-1.5622802 6.0063462 1.1140947
0.64343405 5.0946426 1.3814936
-4.3755288 2.6081266 1.1194592
-3.0385435 4.0956526 1.1249107
-1.5659138 5.9428973 1.1162058
0.62666434 5.0968041 1.3768127
-4.3737059 2.5896757 1.1240433
-3.0477641 4.0814519 1.1264383
-1.5700088 5.8896937 1.1183625
0.61427182 5.1184354 1.3708302
-2.5046072 1.6960856 1.3594633
-3.0670731 4.0777779 1.1237948
-1.5769905 5.840672 1.1191279
0.59808171 5.1253695 1.3649955
-4.4478312 2.5843077 1.119477
-3.0739563 4.0583782 1.1226726
-1.5873533 5.8008518 1.1180062
0.58451068 5.152071 1.3586243
-4.4836297 2.5782995 1.117941
-3.0821278 4.0381455 1.1240017
-1.5955034 5.7513261 1.1189095
0.56865549 5.1689377 1.3528867
-4.4905281 2.5636334 1.119748
-3.0904839 4.024374 1.1255214
-1.6040553 5.7173839 1.120205
0.55448288 5.1804867 1.3474423
-4.5030456 2.5486856 1.121869
-3.1004245 4.0087566 1.1246359
-1.6194229 5.6965966 1.1172024
0.53861654 5.1921859 1.3419917
-4.5513282 2.5505016 1.1178448
-3.1096292 3.9935741 1.1229398
-1.6266723 5.6470976 1.1182469
0.5216189 5.2089162 1.335361
-4.5819249 2.5432405 1.116923
-3.1129014 3.9706736 1.1248461
-1.6318076 5.598279 1.1202596
0.5055725 5.22049 1.3298641
-4.5896587 2.526787 1.1213684
-3.1355627 3.9705708 1.1248394
-1.6424167 5.5736418 1.1187907
0.4916383 5.2367754 1.3239695
-4.6244593 2.5219734 1.1199355
-3.1386626 3.9476449 1.1267391
-1.6417177 5.5056658 1.1229786
0.47650546 5.2582092 1.3185164
-4.6229701 2.5004909 1.1220119
-3.1509457 3.9360323 1.1244651
-1.6568828 5.4846406 1.1210985
0.45747998 5.2598023 1.3128808
-4.6396184 2.4877031 1.1245207
-3.1673286 3.9276953 1.1240232
-1.6623586 5.4406481 1.1227595
0.44376448 5.2809467 1.3073575
-4.6748347 2.4816327 1.124019
-3.1673377 3.9005871 1.1265216
-1.677888 5.4245768 1.1203952
0.42705679 5.3072677 1.3006107
-4.7097359 2.476136 1.1235446
-3.1926479 3.9041107 1.1243061
-1.6747557 5.36236 1.1242396
0.41441265 5.3431382 1.2930077
-4.7350354 2.4674263 1.1232769
-3.1985812 3.8846149 1.1240166
-1.6874316 5.341763 1.121575
0.39761254 5.3542275 1.286476
-4.7566385 2.4541867 1.1226821
-3.2108104 3.8730061 1.124154
-1.7008599 5.3210335 1.1207103
0.38203931 5.3802814 1.2804129
-4.77739 2.4433668 1.1238614
-3.2200735 3.8571455 1.1240827
