# .PCD v0.7 - Point Cloud Data file format
VERSION 0.7
FIELDS x y z intensity
SIZE 4 4 4 4
TYPE F F F F
COUNT 1 1 1 1
WIDTH 1449
HEIGHT 1
VIEWPOINT 0 0 0 1 0 0 0
POINTS 1449
DATA ascii
-19.37513 -0.92857325 1.4364036 1
-8.3123341 3.5275466 1.4782981 1
-11.246459 11.368487 1.2564232 1
-3.97154 10.396341 1.3471401 1
0.18234564 5.6174202 1.5143327 1
-19.400213 -0.99507421 1.4496521 1
-8.3468561 3.5056345 1.4825461 1
-11.271644 11.313493 1.2573602 1
-3.9776838 10.307587 1.3461659 1
0.16407868 5.6280642 1.5106673 1
-19.275053 -1.0561358 1.4678247 1
-8.3718977 3.4801838 1.4870145 1
-11.24954 11.213727 1.2626718 1
-4.0094848 10.278382 1.343309 1
0.14642362 5.6585922 1.5054994 1
-19.174015 -1.1251389 1.4855618 1
-8.3921137 3.4529264 1.4900476 1
-11.379463 11.258428 1.2626172 1
-4.0657043 10.303748 1.3368156 1
0.12792371 5.6690731 1.5008972 1
-19.207766 -1.1988956 1.5020275 1
-8.4364052 3.4322493 1.4941769 1
-11.422248 11.220076 1.2574579 1
-4.1534176 10.413198 1.3255895 1
0.11002661 5.704433 1.4945859 1
-19.132338 -1.2559257 1.5193595 1
-8.4564934 3.4046991 1.4987863 1
-11.443138 11.161429 1.2666794 1
-4.2288237 10.500809 1.3224909 1
0.091175884 5.709805 1.4909937 1
-18.990742 -1.3194129 1.5369868 1
-8.4717522 3.3754468 1.503493 1
-11.5647 11.184814 1.2672545 1
-4.3001041 10.557336 1.3165994 1
0.070867307 5.7350979 1.4858426 1
-18.904966 -1.3742021 1.5507576 1
-8.5201187 3.3571465 1.5076116 1
-11.570393 11.119378 1.2631638 1
-4.3960299 10.6791 1.3045473 1
0.054002225 5.7602458 1.4806157 1
-18.962557 -1.4501547 1.5670121 1
-8.5447102 3.33074 1.5121821 1
-11.546292 11.019894 1.2684414 1
-4.4807587 10.767556 1.2973531 1
0.03403493 5.7703795 1.4758976 1
-18.825619 -1.5087447 1.5841503 1
-8.5492105 3.3009865 1.5155094 1
-11.669968 11.054772 1.2687087 1
-4.5568285 10.848855 1.2942901 1
0.01509335 5.8004441 1.4713562 1
-18.813078 -1.5770521 1.6006727 1
-8.5926695 3.2804711 1.5197871 1
-11.767966 11.065461 1.267133 1
-4.6552992 10.969008 1.2818489 1
-0.0040856646 5.8303685 1.4649282 1
-18.740677 -1.6383591 1.6173168 1
-8.6222639 3.2536521 1.5243319 1
-11.834474 11.04366 1.2694545 1
-4.7383842 11.052146 1.2725668 1
-0.023473866 5.8503261 1.4615973 1
-18.638279 -1.6955847 1.6338854 1
-8.6417608 3.2251701 1.5290351 1
-11.944105 11.063287 1.2703022 1
-4.8445921 11.179572 1.2635319 1
-0.043056697 5.8851285 1.4558164 1
-18.610128 -1.7613062 1.6502506 1
-8.6907816 3.2024024 1.5349253 1
-11.982637 11.019631 1.2734901 1
-4.9433374 11.28275 1.2552688 1
-0.06281741 5.9048281 1.449623 1
-18.547016 -1.8224219 1.6665643 1
-8.7091694 3.1766109 1.5380708 1
-10.045462 9.2560539 1.3396758 1
-5.0391998 11.387048 1.2468832 1
-0.082659014 5.9195261 1.4454675 1
-18.504368 -1.879259 1.6828057 1
-8.7332182 3.1491525 1.5443408 1
-12.392047 11.219497 1.2693698 1
-0.10360839 5.9391685 1.4420421 1
-6.4243035 -0.32167244 1.672869 1
-8.7715416 3.1257968 1.5488619 1
-12.376045 11.12317 1.2715973 1
-0.1237884 5.9586267 1.4357504 1
-8.7954111 3.09799 1.5535873 1
-5.3855209 11.814823 1.2165878 1
-0.14409609 5.9780822 1.4313174 1
-8.8239946 3.0714252 1.5582728 1
-5.4760947 11.887712 1.2089297 1
-0.16504888 6.0173516 1.4240957 1
-8.8765469 3.0515165 1.5627171 1
-12.606698 11.083377 1.2778769 1
-5.5111036 11.854128 1.2076856 1
-0.18584904 6.041678 1.4203333 1
-18.150068 -2.1714571 1.7654957 1
-9.3050489 3.1348302 1.5633403 1
-12.814348 11.177993 1.2760941 1
-5.5832233 11.896675 1.2011775 1
-0.20764293 6.0608568 1.4158103 1
-18.199221 -2.2469292 1.7818673 1
-9.3193617 3.1021905 1.5684644 1
-12.853295 11.131145 1.279418 1
-5.5520859 11.733677 1.2030019 1
-0.22880432 6.084928 1.4100603 1
-18.228287 -2.3196929 1.79819 1
-9.367342 3.0786774 1.5749711 1
-12.998211 11.167355 1.2738547 1
-5.5768938 11.671033 1.2007507 1
-0.24995647 6.1038766 1.403525 1
-6.81988 -0.55047601 1.716943 1
-9.3959398 3.0496566 1.580001 1
-13.103035 11.173463 1.2752675 1
-5.5733752 11.572068 1.2001212 1
-0.27144256 6.1278639 1.3996441 1
-6.7911196 -0.57129037 1.7227012 1
-9.4244499 3.0204604 1.5850513 1
-13.208117 11.179003 1.2796683 1
-5.5814142 11.478297 1.1992505 1
-0.29334626 6.1567078 1.3945235 1
-6.8362527 -0.60433471 1.7291776 1
-9.466526 2.9981577 1.590004 1
-13.352378 11.215117 1.2800511 1
-5.614995 11.4499 1.1978675 1
-0.31645715 6.1853662 1.388386 1
-6.8171701 -0.62671924 1.7350225 1
-9.4860468 2.9627879 1.5968837 1
-13.41102 11.181858 1.2829055 1
-5.4614415 11.045526 1.2103291 1
-0.33853251 6.2089887 1.3824323 1
-6.7881336 -0.64724588 1.7431158 1
-9.5085993 2.9351277 1.6020185 1
-13.489285 11.163908 1.2912085 1
-5.5206647 11.065289 1.2048663 1
-0.36048371 6.227632 1.3786736 1
-6.7248373 -0.66023391 1.7471155 1
-9.556983 2.9067445 1.6070596 1
-5.5545354 11.036194 1.2035645 1
-0.38320711 6.2560062 1.3714 1
-6.4694905 -0.63885397 1.7506521 1
-9.5850525 2.876606 1.6139421 1
-13.687117 11.154799 1.2949024 1
-5.6140122 11.055459 1.198069 1
-0.40580007 6.2794538 1.3673339 1
-6.2782817 -0.62755132 1.7546328 1
-9.6122208 2.8496423 1.6225605 1
-13.749756 11.123125 1.3007439 1
-5.6567111 11.03837 1.1982806 1
-0.42855036 6.2877421 1.3630141 1
-6.2198577 -0.64013284 1.7592888 1
-9.6546917 2.8226182 1.6277304 1
-13.792463 11.075883 1.304089 1
-5.6582394 10.958048 1.1992669 1
-0.45218056 6.320858 1.356361 1
-6.2546654 -0.67042351 1.7654431 1
-9.6824818 2.7918971 1.6312463 1
-13.858811 11.04651 1.3007643 1
-5.6760135 10.891213 1.1933932 1
-0.47681329 6.3638811 1.3501395 1
-6.2549806 -0.694179 1.7721553 1
-9.7101793 2.7610209 1.6399748 1
-13.933264 11.023027 1.3093749 1
-5.6988163 10.838681 1.191069 1
-0.50176704 6.4067955 1.3438585 1
-6.2797198 -0.72290415 1.7782365 1
-9.7621584 2.7354627 1.6452298 1
-13.989502 10.981672 1.3154993 1
-5.7219596 10.79157 1.1905941 1
-0.52473807 6.4096556 1.3386644 1
-6.2656016 -0.74158883 1.7835877 1
-9.7998114 2.7046051 1.6522962 1
-14.039758 10.93945 1.3186686 1
-5.7326059 10.722548 1.1890918 1
-0.54845077 6.4324603 1.3333825 1
-6.2705202 -0.76645643 1.7904403 1
-9.8272228 2.6730652 1.6576484 1
-10.966839 8.5959215 1.3991153 1
-5.723248 10.619025 1.1953064 1
-0.57414848 6.4751105 1.3279954 1
-6.2508869 -0.78616697 1.7967713 1
-9.8887482 2.6486938 1.6683125 1
-10.947897 8.5204315 1.4029462 1
-5.749496 10.575252 1.192664 1
-0.59790164 6.4827013 1.3234901 1
-6.2458668 -0.80893373 1.8023008 1
-9.9257641 2.6187398 1.673749 1
-10.952826 8.4628038 1.40619 1
-5.7289743 10.454535 1.1956742 1
-0.62461317 6.5300374 1.3166912 1
-6.2260895 -0.82844335 1.8085855 1
-9.972476 2.5905681 1.6810076 1
-10.957558 8.4053583 1.4164697 1
-5.7602692 10.424959 1.1964449 1
-0.64810824 6.5425525 1.3128893 1
-6.2160277 -0.85002077 1.813978 1
-9.9995213 2.5581019 1.6847142 1
-10.994426 8.3710461 1.4142562 1
-5.7611008 10.343291 1.193694 1
-0.67540443 6.5895939 1.3049282 1
-6.2009583 -0.87041879 1.8214432 1
-10.046055 2.5293748 1.6938376 1
-11.032677 8.3348341 1.4238193 1
-5.7859931 10.299642 1.193119 1
-0.69919252 6.5918021 1.3006083 1
-6.1858716 -0.89073455 1.8266776 1
-10.048344 2.4917166 1.7010561 1
-11.097955 8.3203154 1.4209901 1
-5.7833834 10.213931 1.1926303 1
-0.72703886 6.6385994 1.2925267 1
-6.1663566 -0.90766793 1.831759 1
-9.9915638 2.4427998 1.7062068 1
-11.114151 8.271204 1.426286 1
-5.8085046 10.175586 1.1918548 1
-0.75231749 6.6605473 1.2869481 1
-6.1559706 -0.92894524 1.8381929 1
-10.121297 2.4293156 1.7140644 1
-10.246416 7.6103101 1.4518478 1
-5.833477 10.137343 1.1949995 1
-0.78003842 6.6922989 1.2829013 1
-6.1457982 -0.94910431 1.8435185 1
-10.10843 2.3887284 1.7230053 1
-10.362967 7.6351681 1.4546787 1
-5.8338256 10.055141 1.1943729 1
-0.80693847 6.7239251 1.2766467 1
-6.1352248 -0.97026116 1.851028 1
-10.163664 2.3641787 1.7306018 1
-14.635893 10.491693 1.383641 1
-5.8870068 10.063699 1.1952204 1
-0.83407784 6.7554998 1.2714398 1
-6.1246381 -0.99137348 1.8563312 1
-10.155473 2.3244336 1.7359858 1
-10.456227 7.5874228 1.465423 1
-5.8902693 9.9911594 1.1961178 1
-0.86189342 6.7817936 1.2654212 1
-6.1042557 -1.0099494 1.8623961 1
-10.211159 2.2958302 1.7436769 1
-11.258369 8.0699959 1.4513501 1
-5.7792454 9.7365541 1.2060041 1
-0.88950354 6.8130527 1.2590373 1
-6.098361 -1.0321624 1.8678372 1
-10.202641 2.2560251 1.754459 1
-11.333075 8.0574312 1.4603046 1
-5.9316568 9.9002409 1.193326 1
-0.91804743 6.8491292 1.2522889 1
-6.0198154 -1.0352767 1.8728753 1
-10.282806 2.2309542 1.7606963 1
-11.406476 8.0462952 1.4621869 1
-5.9337502 9.8278952 1.1942743 1
-0.94797409 6.8850598 1.2477363 1
-6.718658 -1.2452562 1.905293 1
-10.348094 2.2029309 1.7686813 1
-9.4263058 6.6901116 1.5049344 1
-5.9435368 9.7684364 1.1984297 1
-0.97707552 6.9208684 1.2408962 1
-6.4224391 -1.1913446 1.9015248 1
-10.388286 2.1723714 1.7801245 1
-9.4069223 6.628509 1.5136757 1
-6.0494361 9.8548679 1.1952714 1
-1.0034553 6.9368858 1.2364393 1
-6.5699768 -1.2570566 1.9144491 1
-10.42376 2.1389704 1.7879121 1
-11.530515 7.9481192 1.481485 1
-6.0153627 9.7280321 1.1989228 1
-1.0333877 6.9673324 1.2298536 1
-10.439323 2.10236 1.7973183 1
-11.582921 7.9221745 1.4885787 1
-6.0763841 9.7477436 1.1952482 1
-1.0655863 7.0176764 1.2241714 1
-6.7782526 -1.3637885 1.9377233 1
-10.593232 2.0859447 1.8105669 1
-11.614193 7.8825841 1.4983945 1
-6.209362 9.8756075 1.1899794 1
-1.0941435 7.0430932 1.2178155 1
-6.8237319 -1.4035388 1.9485019 1
-10.564074 2.04228 1.8175952 1
-11.615698 7.8242273 1.5086008 1
-6.2008071 9.785347 1.1936904 1
-1.1256906 7.0781908 1.2130706 1
-10.549501 2.0009151 1.8303668 1
-11.680555 7.8056479 1.5179924 1
-6.2458377 9.7793503 1.1951431 1
-1.1563721 7.1132541 1.2071257 1
-10.658282 2.0160587 1.8415042 1
-11.678102 7.8098831 1.534737 1
-6.4607468 10.099177 1.1952041 1
-1.1507354 7.0945258 1.2165798 1
-6.7416835 -1.3800865 1.9547658 1
-10.59341 2.0465233 1.8403867 1
-11.658592 7.8599401 1.5415241 1
-6.4296861 10.132468 1.204489 1
-1.1217831 7.0695038 1.2252741 1
-6.5899305 -1.3119255 1.9418671 1
-10.503787 2.0729096 1.83515 1
-6.493752 10.305914 1.199079 1
-1.0930279 7.0443473 1.2339082 1
-10.384506 2.0942016 1.82583 1
-6.4316235 10.293269 1.2065722 1
-1.0594164 6.9944496 1.2417732 1
-10.477621 2.1473548 1.8236344 1
-6.4040895 10.329431 1.2117423 1
-1.0311531 6.9689379 1.2491363 1
-6.4893579 -1.2094865 1.9204346 1
-10.427297 2.1786218 1.8173225 1
-6.4224205 10.436805 1.21166 1
-1.0038252 6.9330931 1.2570912 1
-6.5592637 -1.2003073 1.9182922 1
-10.33737 2.2031651 1.8122988 1
-9.2927256 6.6122704 1.5591987 1
-6.5164542 10.667667 1.2082661 1
-0.97046751 6.8930798 1.2663529 1
-6.0482421 -1.0427713 1.8901976 1
-10.281956 2.2327754 1.8060229 1
-11.426718 8.0716085 1.5332119 1
-6.5355368 10.779923 1.2039528 1
-0.94077003 6.8521428 1.2711034 1
-6.0589933 -1.021991 1.8860651 1
-10.172211 2.2528379 1.800845 1
-6.5992365 10.964558 1.2028948 1
-0.90176129 6.7269454 1.2842511 1
-6.1229677 -1.014747 1.8827941 1
-10.200446 2.2959499 1.7940198 1
-11.321369 8.121419 1.5283997 1
-6.5927782 11.039468 1.2024462 1
-0.88526297 6.8000212 1.2842208 1
-6.1239643 -0.9912287 1.8771617 1
-10.203834 2.3349476 1.7904398 1
-11.268672 8.1459465 1.5307459 1
-6.5488138 11.06707 1.2084823 1
-0.85770702 6.7688498 1.2926552 1
-6.1345673 -0.9701224 1.8718755 1
-10.103789 2.3553567 1.7819808 1
-14.652036 10.514682 1.4851277 1
-6.6357446 11.295497 1.205965 1
-0.83230793 6.7522755 1.2979747 1
-6.1497245 -0.95121586 1.8656443 1
-10.097151 2.3922565 1.7747291 1
-14.553555 10.525629 1.4793063 1
-6.6170893 11.353831 1.206339 1
-0.80286586 6.7109623 1.3046793 1
-6.1552858 -0.92880613 1.8612731 1
-10.144363 2.4392931 1.7734467 1
-10.262628 7.6327376 1.5339383 1
-6.5962701 11.413551 1.2133552 1
-0.7766217 6.68431 1.3115721 1
-6.1802526 -0.91097021 1.8564265 1
-10.083398 2.4659853 1.7655808 1
-11.072574 8.2543697 1.5186777 1
-6.6308241 11.561932 1.2101051 1
-0.75116807 6.6624384 1.3170629 1
-6.1954298 -0.89071196 1.8512406 1
-9.9929247 2.4864981 1.7575004 1
-11.10146 8.3351088 1.5199955 1
-6.6516232 11.689227 1.207765 1
-0.72418529 6.6256957 1.3254795 1
-6.2056642 -0.86924994 1.845889 1
-10.078919 2.5415614 1.7547345 1
-11.048327 8.3582048 1.5152714 1
-6.6335959 11.752386 1.2125981 1
-0.69752264 6.598753 1.3311442 1
-6.2250876 -0.85208058 1.8408118 1
-9.9791746 2.555984 1.7484312 1
-10.989786 8.3714008 1.5130595 1
-6.6902237 11.939474 1.2102907 1
-0.67476499 6.5763226 1.3365343 1
-6.2356873 -0.82831389 1.8343256 1
-9.9759569 2.5969038 1.741262 1
-10.933923 8.3977757 1.513037 1
-6.6694555 12.009421 1.2104411 1
-0.64694208 6.5443549 1.3434286 1
-6.2549901 -0.81093603 1.8292006 1
-9.9830704 2.6364238 1.735944 1
-10.972412 8.4895096 1.5094174 1
-6.6323647 12.042401 1.2119926 1
-0.62042838 6.5121517 1.3502748 1
-6.2653637 -0.787 1.8249062 1
-9.9069042 2.6581903 1.7317737 1
-14.186308 10.904558 1.4645396 1
-6.7360339 12.323079 1.211085 1
-0.59521276 6.4796753 1.3560311 1
-6.2796521 -0.76839018 1.8196131 1
-9.8412418 2.6781335 1.7259802 1
-14.128092 10.941478 1.4613404 1
-6.6858492 12.340088 1.2133235 1
-0.57069653 6.4520631 1.3614911 1
-6.2894344 -0.74650759 1.8141819 1
-9.8082199 2.7120569 1.7186941 1
-10.892335 8.6152124 1.503612 1
-6.7108665 12.486672 1.2130576 1
-0.54725963 6.4342966 1.3664175 1
-6.2942615 -0.72358686 1.8075091 1
-9.7766075 2.7389491 1.7132082 1
-14.043073 11.030513 1.4515435 1
-6.7373013 12.637893 1.2103045 1
-0.52373344 6.4014192 1.3720582 1
-6.3087554 -0.70257854 1.8032907 1
-9.7242537 2.7662652 1.7093689 1
-13.980597 11.063755 1.4545263 1
-6.6641092 12.610125 1.22142 1
-0.50021857 6.3785319 1.3781847 1
-6.313386 -0.67958111 1.7977223 1
-9.6917105 2.7960753 1.7039294 1
-13.908525 11.100846 1.4514085 1
-6.672689 12.736512 1.2197219 1
-0.4748477 6.3557 1.3842503 1
-6.3226295 -0.65859741 1.7922564 1
-9.6736698 2.8291421 1.6985753 1
-13.86572 11.148505 1.444958 1
-6.7727575 13.029183 1.2145741 1
-0.45025247 6.3126335 1.3902075 1
-6.3762321 -0.64471662 1.7876786 1
-9.6263571 2.8550613 1.6914043 1
-13.822769 11.196033 1.4415512 1
-6.7080908 13.018614 1.2178373 1
-0.42633346 6.2895527 1.3971933 1
-6.3756981 -0.62056732 1.7830898 1
-9.5983877 2.885442 1.6894979 1
-13.763909 11.231176 1.4444734 1
-6.7091966 13.1316 1.2242094 1
-0.40296313 6.2562418 1.4025822 1
-6.340683 -0.59028059 1.7745024 1
-9.5509405 2.9107945 1.680691 1
-13.732444 11.287478 1.4348036 1
-6.716579 13.263313 1.2200609 1
-0.38075182 6.2378354 1.4082606 1
-6.314909 -0.56417251 1.7706319 1
-9.5179567 2.9395235 1.677097 1
-13.68121 11.32835 1.4376031 1
-6.5983934 13.150526 1.2317739 1
-0.35868692 6.2192936 1.4129127 1
-6.255343 -0.52797359 1.7628939 1
-9.499423 2.9717698 1.6718361 1
-13.629805 11.368869 1.4312947 1
-6.4604826 12.99699 1.2422168 1
-0.33622578 6.1906877 1.4179639 1
-6.781939 -0.59280074 1.7656511 1
-9.4662647 3.0001199 1.6648716 1
-13.580307 11.41469 1.4279401 1
-6.3055677 12.806939 1.2513039 1
-0.31373811 6.1770477 1.4233232 1
-6.7265449 -0.56069624 1.7588043 1
-9.4281864 3.0269842 1.6596383 1
-13.536486 11.461161 1.4306037 1
-6.177022 12.665174 1.2658211 1
-0.29095551 6.1333246 1.429893 1
-6.9181957 -0.56626874 1.7555218 1
-9.3996944 3.0561965 1.6544315 1
-13.476968 11.494741 1.4274704 1
-6.0519433 12.532326 1.2704203 1
-0.26956123 6.1144629 1.4353869 1
-17.946732 -2.2690802 1.8941528 1
-9.3662882 3.0839181 1.6492499 1
-13.444433 11.550239 1.4238715 1
-5.947876 12.433611 1.2785294 1
-0.24831598 6.0954752 1.4398769 1
-18.174555 -2.2366908 1.8810074 1
-9.3240604 3.1055317 1.6474868 1
-13.403975 11.591419 1.4205149 1
-5.8048539 12.253659 1.2913799 1
-0.22896914 6.0713429 1.4445525 1
-18.239185 -2.1783135 1.8656242 1
-9.2944221 3.1373799 1.6406534 1
-13.324913 11.616148 1.4176333 1
-5.6939197 12.135627 1.2998217 1
-0.20496942 6.0473275 1.4501113 1
-18.234322 -2.1094162 1.8526284 1
-8.9433804 3.0741506 1.636354 1
-13.309101 11.689647 1.4197091 1
-5.592803 12.040403 1.3074574 1
-0.18419313 6.0280838 1.4545122 1
-18.343071 -2.0567353 1.8375534 1
-8.8091154 3.0707431 1.6317641 1
-13.252859 11.725265 1.4165205 1
-5.4858561 11.92559 1.3155745 1
-0.16319175 5.9938092 1.4603873 1
-6.4162297 -0.34215462 1.7156001 1
-8.7997684 3.1028721 1.6268553 1
-13.188923 11.754131 1.4134804 1
-5.3519707 11.75144 1.3253431 1
-0.14285931 5.9793968 1.4645436 1
-8.776371 3.1291764 1.6220124 1
-13.151506 11.805483 1.4099469 1
-5.2683339 11.680501 1.3319212 1
-0.12237584 5.9499512 1.4701502 1
-8.7428598 3.1539946 1.6172245 1
-13.102705 11.839061 1.4067444 1
-5.1473246 11.527593 1.3429129 1
-0.10311548 5.9254074 1.4755456 1
-8.7092829 3.1786003 1.6124624 1
-13.072513 11.896732 1.4060781 1
-5.0465293 11.420151 1.350329 1
-0.083148241 5.9057651 1.4797877 1
-18.496542 -1.7406963 1.7574608 1
-8.680419 3.2044685 1.6076977 1
-12.992986 11.919244 1.4032357 1
-4.9734192 11.365804 1.3561492 1
-0.061450705 5.8860855 1.4849191 1
-18.574354 -1.6813362 1.7415321 1
-8.6323881 3.2241976 1.6030778 1
-12.971927 11.981009 1.4054514 1
-4.857542 11.215414 1.3645562 1
-0.043610387 5.8563137 1.4903692 1
-18.602301 -1.6156757 1.7253015 1
-8.6224823 3.2556894 1.601375 1
-12.929885 12.028302 1.4019856 1
-4.7612123 11.105382 1.3717296 1
-0.024122348 5.8264747 1.4957517 1
-18.793962 -1.5682532 1.7094744 1
-8.5933962 3.2810261 1.5966649 1
-12.879925 12.07659 1.3985506 1
-4.6839805 11.035913 1.3777121 1
-0.0029080024 5.8165393 1.5004665 1
-18.876154 -1.5075781 1.6964324 1
-8.5594826 3.3046422 1.5920126 1
-12.830135 12.116881 1.3982476 1
-4.5773964 10.90278 1.3872838 1
0.016332604 5.8015079 1.5044094 1
-18.853371 -1.4386599 1.6798465 1
-8.5492611 3.3358455 1.5871861 1
-12.780563 12.149101 1.3950534 1
-4.4935951 10.814006 1.3935808 1
0.03417604 5.7564564 1.5101129 1
-18.940765 -1.3711388 1.6633338 1
-8.5241947 3.3637595 1.5824803 1
-12.733837 12.200126 1.3915445 1
-4.4302468 10.770678 1.3986362 1
0.055081114 5.7512727 1.5146079 1
-19.016663 -1.3152344 1.6533468 1
-8.4711056 3.3804715 1.5780687 1
-12.682023 12.234152 1.3883349 1
-4.3183475 10.612129 1.4103535 1
0.071500003 5.7060757 1.5193009 1
-19.078695 -1.2441448 1.6332762 1
-8.4511461 3.4081321 1.5749201 1
-12.624002 12.274599 1.3880686 1
-4.2387118 10.526505 1.4162717 1
0.092045605 5.6957388 1.5238781 1
-19.144238 -1.1863739 1.6197785 1
-8.4310856 3.435673 1.570227 1
-12.592328 12.32317 1.3905009 1
-4.1770735 10.481957 1.4211267 1
0.10919949 5.6954322 1.5291193 1
-19.230093 -1.1232203 1.6027744 1
-8.3826094 3.4532199 1.5658597 1
-12.541252 12.36995 1.3840637 1
-4.0778818 10.349999 1.4279907 1
0.12882632 5.6599131 1.53249 1
-19.196136 -1.0495467 1.5860831 1
-8.3718309 3.483767 1.5610917 1
-12.486929 12.405313 1.3808386 1
-3.9927859 10.244505 1.4341272 1
0.14711396 5.6444054 1.5371429 1
-19.241648 -0.98246264 1.5724492 1
-8.3515368 3.510922 1.5579807 1
-12.454193 12.461307 1.383137 1
-3.9706242 10.302168 1.438287 1
0.16432133 5.6038542 1.5423459 1
-19.356695 -0.92033607 1.5550113 1
-8.302928 3.5277591 1.5536951 1
-12.397544 12.498478 1.3828901 1
-3.9311047 10.307327 1.4418144 1
0.18338709 5.5931687 1.5468086 1
-19.396725 -0.85201281 1.5378464 1
-8.2960405 3.5611691 1.5488819 1
-12.346448 12.536681 1.3795838 1
-6.7302942 17.500582 1.2913694 1
0.19987482 5.5474944 1.5520098 1
-19.431511 -0.78307807 1.5206537 1
-8.2661352 3.5844822 1.5474598 1
-12.313732 12.584441 1.378998 1
-6.670362 17.513517 1.2973776 1
0.19348328 5.0824528 1.5657588 1
-19.490568 -0.72230476 1.5066135 1
-8.251276 3.6099901 1.544333 1
-12.262371 12.622287 1.3756914 1
-6.6303673 17.604284 1.3017294 1
0.23439303 5.5359373 1.5606302 1
-19.535255 -0.64662057 1.4892036 1
-8.2996235 3.6659048 1.5386989 1
-12.203141 12.660688 1.375424 1
-6.5725002 17.658842 1.3100621 1
0.2530635 5.5099506 1.56528 1
-19.603848 -0.5856784 1.474912 1
-8.3405476 3.7128961 1.5347147 1
-12.176278 12.722908 1.3745395 1
-6.5415025 17.766996 1.3141552 1
0.26888964 5.469028 1.570174 1
-19.742281 -0.52463847 1.4563738 1
-8.3765669 3.758378 1.5292003 1
-12.106259 12.728972 1.3718846 1
-3.5136158 9.8368416 1.4762923 1
0.27492824 5.3334656 1.5758226 1
-19.720934 -0.45114705 1.4428179 1
-8.4339666 3.81762 1.5248079 1
-12.072016 12.783827 1.37116 1
-3.4760356 9.8402281 1.4796028 1
0.29929623 5.4321318 1.5782038 1
-19.8391 -0.38434497 1.4242005 1
-8.4869041 3.8739915 1.515684 1
-9.2545776 9.9940481 1.4349052 1
0.31897995 5.4308252 1.5823003 1
-19.996937 -0.31840965 1.4013833 1
-8.4606504 3.8993647 1.5126015 1
-9.2405672 10.042522 1.434149 1
0.3360889 5.4296179 1.585565 1
-19.974827 -0.24426198 1.3911976 1
-8.4250708 3.9208696 1.511273 1
-10.082341 10.994965 1.4171934 1
-6.2881613 18.05262 1.353107 1
0.35294551 5.4033165 1.5908748 1
-20.122215 -0.1763403 1.371648 1
-8.4079027 3.9496505 1.5048877 1
0.36790705 5.3770828 1.5953027 1
-20.059429 -0.1006487 1.3515303 1
-8.3582926 3.96505 1.5007014 1
-11.809014 12.968009 1.3636179 1
-3.0628471 9.2241783 1.5118898 1
0.38351214 5.3507075 1.5979952 1
-8.0327377 0.31001556 1.5333632 1
-8.3404608 3.9950681 1.5006274 1
-11.780544 13.029392 1.3686913 1
-2.9899554 9.1066961 1.5200973 1
0.40030828 5.3392568 1.6038458 1
-7.9785032 0.34347704 1.5272601 1
-8.3276215 4.0254011 1.4926193 1
-11.747328 13.094609 1.3617451 1
-2.955534 9.1185236 1.5213414 1
0.41586903 5.2977014 1.6082968 1
-7.9190984 0.37522596 1.5213407 1
-8.2825279 4.0420623 1.4899815 1
-11.694436 13.130116 1.3614343 1
-2.8905513 9.0297565 1.5273217 1
0.42556122 5.2164488 1.6130872 1
-7.8545671 0.40523607 1.5169841 1
-8.2603951 4.0682926 1.4868881 1
-11.641443 13.165404 1.3611228 1
-2.8325772 8.9595757 1.531366 1
0.43112683 5.1003661 1.6180561 1
-7.8448691 0.4313052 1.5116839 1
-8.2565041 4.1023383 1.4818449 1
-11.606254 13.211205 1.3605092 1
-2.7858741 8.9118977 1.5365719 1
0.44107434 5.0491085 1.6223209 1
-7.800117 0.46309495 1.5057195 1
-8.2112789 4.1183829 1.4792618 1
-11.482578 13.181695 1.3588041 1
-2.7167323 8.8135757 1.5423987 1
0.45596468 5.0173759 1.6263276 1
-7.7701683 0.48903525 1.4981794 1
-8.1882792 4.1456718 1.4761833 1
-11.50412 13.290197 1.3566904 1
-2.6788282 8.8048201 1.5453858 1
0.47754058 5.0753741 1.6289397 1
-7.7351923 0.51748222 1.4934967 1
-8.1748991 4.1754532 1.4697974 1
-11.440659 13.313504 1.3566418 1
-2.6560442 8.8383198 1.5462803 1
0.51610351 5.2622256 1.6316773 1
-7.7950873 0.5444001 1.4867566 1
-8.1308107 4.187993 1.4657437 1
-11.327435 13.280404 1.3579195 1
-2.6404004 8.8852596 1.5531224 1
0.52869433 5.2204857 1.6358625 1
-7.8298392 0.57571095 1.4791374 1
-8.1069431 4.2162795 1.4626874 1
-11.272897 13.321876 1.3574725 1
-2.6053801 8.8909464 1.5574312 1
0.54690713 5.2132483 1.6398232 1
-12.06318 0.63971668 1.3730268 1
-8.0946474 4.2429867 1.4594436 1
-11.121914 13.234822 1.359956 1
0.56118101 5.2013922 1.643822 1
-12.097461 0.68420511 1.3616089 1
-8.0382023 4.2577219 1.4571886 1
-11.062094 13.273595 1.3595779 1
0.57733387 5.1791511 1.6486148 1
-11.956647 0.72619992 1.3545935 1
-8.0302944 4.2863197 1.4538434 1
-11.058895 13.355455 1.3521677 1
-2.4721749 8.7798223 1.5672327 1
0.59207255 5.1721516 1.6509315 1
-11.960606 0.76996911 1.3439955 1
-8.0060635 4.3140421 1.4492764 1
-11.062561 13.464359 1.356017 1
-2.4026742 8.6543875 1.5728642 1
0.60658652 5.1398935 1.6556765 1
-11.899541 0.81020671 1.3372346 1
-7.9663777 4.3274884 1.4467715 1
-11.097239 13.592435 1.3564142 1
-2.350738 8.5862026 1.5777764 1
0.61975735 5.1228971 1.6587789 1
-11.803423 0.85116249 1.3356373 1
-7.9427061 4.3535275 1.4437741 1
-11.046102 13.629065 1.3560044 1
-2.3184483 8.5851097 1.5848855 1
0.6344375 5.1056242 1.664263 1
-11.791862 0.89396167 1.3235289 1
-7.9286103 4.3824406 1.4405423 1
-11.049326 13.730727 1.3540857 1
0.65045834 5.0981975 1.6673212 1
-11.740095 0.9394176 1.314661 1
-7.8816586 4.3986125 1.4381771 1
-10.984376 13.765081 1.3477833 1
0.66650838 5.0805817 1.6711355 1
-11.733465 0.97801912 1.3065741 1
-7.8777099 4.4290051 1.4347162 1
-10.918226 13.774289 1.3479626 1
-2.185041 8.4510403 1.5955057 1
0.68004543 5.0683446 1.6749716 1
-11.656542 1.0198103 1.3006388 1
-7.8454556 4.448729 1.4320104 1
-10.883972 13.841112 1.3468652 1
-2.1145542 8.3043823 1.6006774 1
0.69587135 5.0506158 1.6795378 1
-11.649456 1.0621498 1.2926064 1
-7.8080153 4.4673734 1.4294422 1
-10.800556 13.838105 1.350347 1
-2.0081282 8.017128 1.6066734 1
0.70999086 5.0330939 1.6832932 1
-11.552364 1.1000673 1.2874773 1
-7.771235 4.484436 1.4268993 1
-10.792482 13.928244 1.3546631 1
-1.9794173 8.019516 1.6104881 1
0.72399724 5.0155206 1.6878161 1
-11.305305 1.1294252 1.2834747 1
-2.4276009 1.7713381 1.585086 1
-10.752659 13.97919 1.3478872 1
-1.9308652 7.9442773 1.6120923 1
0.73872167 5.002841 1.6907643 1
-11.013422 1.1544777 1.2853698 1
-7.6798019 4.5086484 1.4194076 1
-10.700989 14.020299 1.350353 1
-1.8902156 7.897892 1.6161418 1
0.7525003 4.9851809 1.6944489 1
-10.931131 1.1880113 1.2803978 1
-7.7131352 4.5634365 1.4146723 1
-10.662404 14.063454 1.3497106 1
-1.8523444 7.861011 1.620086 1
0.76638353 4.9775972 1.6982096 1
-10.893503 1.2257015 1.2739428 1
-7.6806245 4.5821824 1.4135536 1
-10.621987 14.114138 1.3489276 1
-1.8159572 7.8288069 1.6239626 1
0.78086776 4.9647665 1.7019002 1
-10.860662 1.2634504 1.2654614 1
-7.595057 4.5724382 1.4096671 1
-10.572148 14.15279 1.3454084 1
-1.7763183 7.7818508 1.6278628 1
0.79526776 4.9518852 1.7055742 1
-10.757972 1.2960501 1.2615066 1
-7.6431994 4.6305614 1.4044584 1
-10.509999 14.175463 1.3452578 1
-1.738211 7.7395568 1.6303992 1
0.80676562 4.9242234 1.7090632 1
-10.729793 1.3353235 1.2548645 1
-7.6259217 4.6623378 1.4012427 1
-10.467308 14.233363 1.347332 1
-1.701552 7.7019649 1.6354535 1
0.82151502 4.9060411 1.7133936 1
-10.746442 1.3760314 1.246534 1
-7.585866 4.6730633 1.4004762 1
-10.163075 13.930813 1.3545431 1
-1.6651901 7.6641979 1.640448 1
0.83406055 4.8933387 1.7162381 1
-10.663196 1.4087057 1.2383565 1
-7.5821896 4.710475 1.3938113 1
-9.6696959 13.376103 1.3646724 1
-1.6280619 7.6213646 1.6415908 1
0.84904838 4.8851676 1.7206713 1
-10.599905 1.4425014 1.2332398 1
-7.6512756 4.7816753 1.3907304 1
-9.4433975 13.170907 1.3751949 1
-1.5912478 7.5783644 1.6452363 1
0.86297143 4.8720584 1.7242476 1
-10.621344 1.4815528 1.2265967 1
-12.340285 7.4546599 1.2169983 1
-9.3999977 13.209271 1.3718779 1
-1.5536959 7.5303073 1.6500885 1
0.87475479 4.8491044 1.72842 1
-10.691709 1.5309243 1.2141188 1
-12.253863 7.4651127 1.2139943 1
-12.594757 17.661213 1.2788097 1
-1.5228013 7.5114007 1.6536061 1
0.88742417 4.8310213 1.7318699 1
-8.7886209 1.3831114 1.2887547 1
-12.223934 7.5072622 1.2089586 1
-12.549561 17.731306 1.2739149 1
-1.4890058 7.4776754 1.6546282 1
0.89996874 4.8129153 1.7345313 1
-8.9587336 1.4356551 1.2719253 1
-12.011955 7.444416 1.208316 1
-12.366345 17.616972 1.2695105 1
-1.4514058 7.4242144 1.6593293 1
0.91347855 4.7996392 1.7380241 1
-8.994957 1.4708765 1.2622703 1
-11.937585 7.4625044 1.2001896 1
-12.361926 17.743389 1.2707102 1
-1.4182178 7.3901672 1.6603051 1
0.92800409 4.7911963 1.741595 1
-8.9515419 1.4993953 1.2592613 1
-11.748324 7.4100142 1.206229 1
-12.333568 17.837412 1.2726654 1
-1.3852532 7.3559752 1.6661216 1
0.94136369 4.7778115 1.7458179 1
-8.8781157 1.5242684 1.2545381 1
-11.731479 7.4578233 1.1984905 1
-12.221087 17.812929 1.2735646 1
-1.3514086 7.3218589 1.6682416 1
0.95389676 4.7645717 1.7492698 1
-8.8292561 1.5530063 1.2487769 1
-11.508491 7.3828015 1.2013295 1
-12.18922 17.902447 1.2682121 1
-1.3190237 7.2873578 1.6703479 1
0.96708333 4.7511196 1.7526985 1
-8.8251944 1.5851796 1.2425212 1
-8.5916224 5.6879869 1.3114052 1
-12.136923 17.963369 1.2708938 1
-1.286898 7.2527108 1.6736209 1
0.97666913 4.7230463 1.7557733 1
-8.7962255 1.6142944 1.2374567 1
-8.5555086 5.7088642 1.3084065 1
-11.990521 17.894514 1.2764524 1
-1.2541317 7.2129984 1.6780258 1
0.99082124 4.7143598 1.7600229 1
-8.7670841 1.6431969 1.23089 1
-11.960687 17.987734 1.274711 1
-1.2208028 7.1682138 1.6811782 1
1.003711 4.70081 1.7626429 1
-8.8813305 1.6921459 1.2187507 1
-11.885418 18.0147 1.2707361 1
-1.1904236 7.1380501 1.683169 1
1.0177416 4.6920462 1.7661214 1
-8.9612188 1.7326484 1.2066292 1
-9.2563505 6.2757149 1.2610631 1
-11.944081 18.240429 1.2623067 1
-1.1586012 7.0979004 1.6839372 1
1.0304779 4.6783915 1.7694623 1
-8.9911776 1.7700647 1.2000581 1
-9.4639149 6.4528503 1.2528776 1
-11.848602 18.238295 1.2663826 1
-1.1295388 7.0723896 1.6882197 1
1.0431288 4.6646762 1.7735308 1
-9.0008984 1.8064739 1.1928883 1
-9.5464954 6.5555749 1.2402017 1
-11.76434 18.252369 1.2700754 1
-1.1006784 7.0467515 1.6924623 1
1.053134 4.6412992 1.7758193 1
-9.0402613 1.8456929 1.1825486 1
-9.5537052 6.6090441 1.2327383 1
-11.594683 18.142597 1.269098 1
-1.0680953 6.9963174 1.6930975 1
1.0616876 4.6130333 1.7794127 1
-9.0152435 1.8756621 1.1755838 1
-9.5166502 6.6297207 1.2312988 1
-11.58195 18.264496 1.2703716 1
-1.0389578 6.9654756 1.6972302 1
1.0766138 4.6089125 1.7822219 1
-8.9208708 1.8964914 1.1740012 1
-9.3546305 6.5763021 1.23148 1
-11.478903 18.247843 1.2673175 1
-1.0115952 6.9444027 1.6991199 1
1.0941865 4.6143475 1.7860677 1
-8.8118324 1.9127499 1.1718165 1
-9.3783474 6.6403551 1.2252182 1
-11.327583 18.155071 1.2732856 1
-0.98291367 6.9133177 1.7020538 1
1.1043608 4.595818 1.7899002 1
-8.6978703 1.927439 1.170094 1
-9.5018244 6.7705207 1.2122314 1
-11.238786 18.158302 1.2698152 1
-0.95088756 6.8573756 1.7036598 1
1.1110266 4.5626912 1.7917547 1
-8.5689001 1.9403777 1.1694082 1
-9.5399742 6.8479834 1.1990498 1
-11.043036 17.998148 1.2700051 1
-0.92490745 6.8408947 1.7044096 1
1.1299133 4.5727644 1.7957596 1
-8.4405365 1.9479121 1.1659781 1
-9.4252462 6.8215022 1.1973065 1
-0.89631623 6.8044891 1.7061121 1
1.1390837 4.5492215 1.7971624 1
-8.3313284 1.962357 1.164603 1
-9.3397179 6.8137045 1.1903163 1
-0.86800343 6.7679596 1.7077895 1
1.1523499 4.539989 1.8005054 1
-8.1191216 1.925931 1.1657476 1
-9.04389 6.6164055 1.1842451 1
-0.86879307 6.7729812 1.6957532 1
1.1481004 4.5257888 1.7949176 1
-8.1637688 1.9014856 1.163434 1
-9.0048151 6.5400648 1.1858919 1
-0.89581317 6.7996192 1.6884272 1
1.1404891 4.5542617 1.7900275 1
-8.1836538 1.8741462 1.1654992 1
-9.0433378 6.518147 1.1833742 1
-9.5226936 15.586285 1.2491847 1
-0.92442018 6.83603 1.6832846 1
1.1285329 4.5682955 1.7853519 1
-8.2330189 1.8514112 1.1657957 1
-8.9524145 6.4108319 1.1858195 1
-9.55091 15.509008 1.2416056 1
-0.95475632 6.8822083 1.676986 1
1.1164879 4.5822911 1.7806525 1
-8.3214684 1.835927 1.1622986 1
-8.9706488 6.3737698 1.1844296 1
-9.4761419 15.271661 1.232529 1
-0.98028761 6.8936253 1.6694021 1
1.1023635 4.5864449 1.7749119 1
-8.3708305 1.8123859 1.1641363 1
-9.0171337 6.3572774 1.1833371 1
-9.4079742 15.047968 1.2355371 1
-1.0104297 6.934588 1.6640538 1
1.0901794 4.6003313 1.7709105 1
-8.4104738 1.785568 1.1666054 1
-8.9458771 6.2648787 1.1866077 1
-9.2970858 14.756199 1.2346823 1
-1.0401112 6.97047 1.6586304 1
1.0752792 4.6045537 1.7658981 1
-8.4991379 1.767082 1.1647385 1
-8.9374418 6.2135034 1.1920873 1
-9.2694874 14.600782 1.230023 1
-1.0708495 7.0111556 1.6542795 1
1.0642488 4.6231995 1.7612484 1
-8.5681782 1.7452011 1.1670872 1
-8.9591026 6.1792326 1.1904891 1
-9.1822615 14.346869 1.2343245 1
-1.1002789 7.0418296 1.6498826 1
1.0529408 4.6470065 1.7574325 1
-8.6075354 1.7172219 1.1681968 1
-8.8992958 6.0960937 1.1949302 1
-9.1530142 14.20399 1.2296445 1
-1.1299572 7.0723686 1.6442831 1
1.0405612 4.6555233 1.7532179 1
-8.6566668 1.6918141 1.1718016 1
-8.8645201 6.029345 1.1998529 1
-9.0774403 13.983716 1.2303694 1
-1.16072 7.1076984 1.6386095 1
1.030421 4.6789112 1.7485774 1
-8.754981 1.6724498 1.1681032 1
-8.7962351 5.9403715 1.2047194 1
-9.0255995 13.801338 1.2272357 1
-1.1917665 7.142879 1.6316988 1
1.0188972 4.6974282 1.7437905 1
-8.7446651 1.6371371 1.1736166 1
-8.6991119 5.8409653 1.2126436 1
-9.0228329 13.688257 1.2275306 1
-1.2239385 7.182857 1.6282158 1
1.0055665 4.7060132 1.7395251 1
-8.7786989 1.6089061 1.178188 1
-8.5537357 5.7051563 1.2214382 1
-8.8184757 13.288728 1.2319506 1
-1.2546369 7.2128329 1.6223708 1
0.99265182 4.7195706 1.7360961 1
-8.8269854 1.5852464 1.1788954 1
-8.5579214 5.6691093 1.2205533 1
-8.8137522 13.182341 1.2268461 1
-1.2892566 7.2623158 1.6151488 1
0.98081613 4.7379742 1.7312282 1
-8.7666111 1.5456427 1.1886247 1
-8.6119986 5.656919 1.2225039 1
-8.774045 13.027249 1.2315242 1
-1.3204777 7.2920136 1.6115633 1
0.96655256 4.7466006 1.7269241 1
-8.7413807 1.5058231 1.197956 1
-8.7296457 5.6839957 1.2194635 1
-8.8226156 12.999152 1.2291907 1
-1.3528984 7.3264675 1.6066999 1
0.95450735 4.764924 1.7219995 1
-8.7446985 1.4769758 1.2010787 1
-9.1577702 5.892211 1.1990473 1
-8.8565626 12.950348 1.2222474 1
-1.3846241 7.3558545 1.6006116 1
0.94234788 4.7831869 1.7185594 1
-8.6841431 1.4353687 1.2106186 1
-8.8735733 5.6758842 1.218282 1
-8.8181391 12.787325 1.2245866 1
-1.4249197 7.4140244 1.5954348 1
0.92637217 4.7920175 1.7134576 1
-8.6426573 1.4007246 1.21602 1
-8.6871634 5.5292788 1.228591 1
-8.7913408 12.664804 1.223091 1
-1.4568278 7.4533868 1.5903199 1
0.91331893 4.8001132 1.7090787 1
-8.6560059 1.3701757 1.2216237 1
-9.7072401 6.0703011 1.1810569 1
-8.806284 12.592155 1.2223994 1
-1.4904116 7.4872079 1.5852205 1
0.90193117 4.8231363 1.7056255 1
-8.5995522 1.3330779 1.2292188 1
-9.6492252 5.9904795 1.1851431 1
-8.7705278 12.450977 1.2216433 1
-1.5253162 7.525744 1.5787656 1
0.89037579 4.8461471 1.7006013 1
-8.5778313 1.299512 1.2365193 1
-8.7517109 12.334415 1.2226351 1
-1.5640212 7.5684967 1.5747101 1
0.87661558 4.859324 1.6969882 1
-8.5959082 1.2680175 1.2418475 1
-7.68257 4.8002114 1.2901242 1
-8.7132349 12.188437 1.2196519 1
-1.597386 7.5969357 1.5695033 1
0.86452711 4.8772097 1.6918441 1
-8.658474 1.241531 1.2435325 1
-7.5815172 4.7043228 1.2959992 1
-8.7088881 12.08559 1.2226988 1
-1.6309865 7.6252007 1.5629822 1
0.84806377 4.8857121 1.687397 1
-8.8057528 1.2211947 1.2443216 1
-7.5874004 4.6732745 1.3010964 1
-8.7239676 12.017795 1.2219784 1
-1.6681542 7.6679673 1.5587447 1
0.83306569 4.8938465 1.6829261 1
-10.576423 1.3218768 1.1645344 1
-7.6288505 4.6598601 1.3000262 1
-8.7225323 11.937111 1.2193371 1
-1.7042881 7.7160048 1.554363 1
0.82337302 4.921257 1.6785187 1
-10.808662 1.2994429 1.1595203 1
-7.6351042 4.6272702 1.3006154 1
-8.6849957 11.801939 1.2163125 1
-1.7386853 7.7437797 1.5476608 1
0.80539525 4.9145622 1.6747346 1
-10.781822 1.2579951 1.1684992 1
-7.6633663 4.6065121 1.3031855 1
-8.7036991 11.737037 1.2180029 1
-1.7852002 7.8096881 1.5415949 1
0.79300141 4.9372797 1.6702672 1
-8.4320393 1.0669985 1.2832367 1
-7.6967025 4.5865989 1.3055702 1
-8.6686125 11.599741 1.222508 1
-1.8201855 7.8371387 1.5373708 1
0.77799922 4.9553289 1.6649824 1
-8.5886698 1.0468879 1.2823601 1
-7.693882 4.5492964 1.3095754 1
-8.7330112 11.606341 1.2190316 1
-1.8602383 7.8837833 1.5301369 1
0.76685864 4.977684 1.6612089 1
-8.5108051 1.0111063 1.2888895 1
-2.550931 1.8456956 1.5443981 1
-8.6803579 11.456725 1.2192696 1
-1.8943924 7.9163861 1.5257097 1
0.75054359 4.9805899 1.6566359 1
-8.4279909 0.97565913 1.2999791 1
-7.8653574 4.5662184 1.3065376 1
-8.6897764 11.378914 1.2190348 1
-1.9401709 7.9717259 1.5208431 1
0.73775184 5.0132637 1.6520313 1
-8.4597225 0.94636589 1.3046407 1
-7.7427545 4.4658408 1.3129125 1
-8.6967983 11.302642 1.2163835 1
-1.9850817 8.0322781 1.5130926 1
0.72130388 5.0160522 1.6474282 1
-8.481369 0.9163996 1.309756 1
-7.8017988 4.460144 1.3141214 1
-8.6663647 11.192333 1.2201116 1
-2.0138276 8.0298223 1.5092084 1
0.70722997 5.0234542 1.6435863 1
-8.4380722 0.88215327 1.317537 1
-7.7760024 4.4116096 1.3190929 1
-8.7659807 11.227262 1.2176781 1
-2.1372838 8.374506 1.4981984 1
0.69552416 5.0658669 1.638817 1
-8.3345585 0.85037327 1.327638 1
-7.8522425 4.4157004 1.3195536 1
-8.7029161 11.078547 1.2206125 1
-2.1658976 8.3770409 1.494 1
0.68202418 5.0781202 1.634902 1
-8.2858829 0.81827664 1.3340005 1
-7.879952 4.3936987 1.3221899 1
-8.2934952 10.502627 1.2391261 1
-2.2466722 8.546525 1.4833059 1
0.66381788 5.0708027 1.6303065 1
-8.2272053 0.78624582 1.343559 1
-7.9300675 4.3824778 1.3238833 1
-8.6984015 10.913351 1.2208787 1
-2.2557671 8.4660645 1.480864 1
0.65160775 5.1029706 1.626246 1
-8.2282591 0.7548002 1.3478975 1
-7.9351015 4.3491778 1.3244306 1
-8.6912479 10.827866 1.2188448 1
-2.3094482 8.54424 1.4719403 1
0.63699448 5.1202593 1.6214463 1
-8.2592363 0.72546566 1.3539839 1
-7.9632993 4.3253393 1.3270999 1
-8.7128096 10.777156 1.224739 1
-2.4038935 8.7615461 1.4654602 1
0.62227076 5.1375027 1.6174271 1
-11.952044 0.7654835 1.2275887 1
-8.0043716 4.3091683 1.3307502 1
-8.4029732 10.338707 1.2424128 1
-2.3877249 8.5943699 1.4650846 1
0.6074205 5.1546888 1.6125696 1
-8.0137091 4.2778778 1.3341767 1
-8.6980057 10.605501 1.2231004 1
0.59246051 5.1718307 1.6084979 1
-11.978818 0.67844677 1.2393118 1
-8.0364246 4.2528167 1.3339715 1
-8.8166256 10.667929 1.2147082 1
0.57541597 5.1740322 1.6029439 1
-12.099608 0.63565445 1.2477927 1
-8.0871429 4.2388744 1.3388579 1
-8.6926517 10.451422 1.2277966 1
-2.548969 8.8067169 1.4451151 1
0.56217813 5.2059512 1.5994582 1
-7.8175535 0.57147813 1.3978294 1
-8.0916014 4.2052302 1.3409259 1
-8.8378096 10.543278 1.2181256 1
-2.5983961 8.8541107 1.4363489 1
0.54624283 5.2179637 1.5945535 1
-7.807806 0.54295421 1.4036274 1
-8.1050806 4.1757379 1.3441774 1
-8.8894224 10.524363 1.2178657 1
-2.6676416 8.9685659 1.4287018 1
0.53142554 5.2398567 1.5903082 1
-7.7680101 0.51459759 1.4117243 1
-8.1595201 4.164515 1.3458455 1
-8.8860054 10.447135 1.220228 1
-2.6577792 8.8300743 1.4279644 1
0.51529258 5.2517562 1.585355 1
-7.8330498 0.48581687 1.4164878 1
-8.1735229 4.1333809 1.3506725 1
-8.9190178 10.404104 1.2209731 1
-2.6881514 8.8203163 1.425226 1
0.49910861 5.278698 1.5809815 1
-7.828002 0.46001145 1.4221144 1
-8.2004709 4.1095891 1.3534237 1
-8.9146786 10.333737 1.2185118 1
-2.7231205 8.824666 1.420559 1
0.48387402 5.285327 1.5760462 1
-7.867805 0.42816633 1.4277717 1
-8.245698 4.0935874 1.3555073 1
-8.9640808 10.309154 1.2207345 1
-2.7737689 8.8763447 1.4144847 1
0.46736288 5.3121381 1.5707642 1
-7.862535 0.40091461 1.4334148 1
-8.2450266 4.0576491 1.3608512 1
-8.9947453 10.274254 1.221257 1
-2.8248324 8.9277601 1.4083468 1
0.45148581 5.3136964 1.5667233 1
-7.9121008 0.37116194 1.4375066 1
-8.2808723 4.0372901 1.3601742 1
-8.9997835 10.208379 1.2231174 1
-2.8873615 9.0067787 1.3997351 1
0.43587762 5.3352633 1.5622969 1
-7.9416041 0.34154293 1.4435962 1
-8.3312445 4.0211515 1.3637172 1
-9.0419083 10.182629 1.2185522 1
-2.9377468 9.0528822 1.3935912 1
0.41918311 5.3468213 1.5580461 1
-8.1307936 0.30712807 1.4426951 1
-8.3301945 3.9850242 1.3675005 1
-9.0429449 10.113168 1.2205895 1
-2.9966671 9.1223946 1.3882236 1
0.40284851 5.3632779 1.5528247 1
-7.7603927 0.28939465 1.4593426 1
-8.3567686 3.9603758 1.3718811 1
-9.0727625 10.071263 1.2213085 1
-3.0495329 9.1725607 1.3786163 1
0.38640839 5.3796926 1.5484211 1
-7.7196364 0.26251549 1.4671123 1
-8.4017458 3.9430826 1.3740731 1
-9.0835152 10.012855 1.225127 1
0.36901921 5.386065 1.5433797 1
-7.8535595 0.22900304 1.4692341 1
-8.4142952 3.9124696 1.3789572 1
-9.1457396 10.001657 1.2243698 1
0.35264847 5.4274058 1.5383327 1
-8.4458876 3.8877368 1.3832387 1
-9.0727129 9.8637629 1.229656 1
0.33676389 5.4335384 1.5340776 1
-8.480279 3.8690393 1.3857849 1
-9.173131 9.8984404 1.2245966 1
-3.3697388 9.6519327 1.3458506 1
0.31948894 5.444725 1.529699 1
-20.151327 -0.48350126 1.2235577 1
-8.4517088 3.8188081 1.3888795 1
-9.2332945 9.8814487 1.2240154 1
-3.470804 9.822237 1.3347136 1
0.29974601 5.4459896 1.5255908 1
-8.4020023 3.7675433 1.3940871 1
-9.0600777 9.6449432 1.2294739 1
0.28533849 5.4768538 1.5197487 1
-19.735128 -0.60025555 1.2635105 1
-8.3771009 3.721215 1.4000974 1
-8.7443933 9.2685289 1.2526425 1
-3.5797205 9.9146338 1.3242685 1
0.27075756 5.5077443 1.5164522 1
-19.51689 -0.65245813 1.2780793 1
-8.3035612 3.6618249 1.4074646 1
-8.8435698 9.3033876 1.2455168 1
-3.6568856 10.013287 1.3117541 1
0.25504816 5.5535579 1.5091994 1
-19.497816 -0.7228927 1.2988409 1
-8.2682056 3.6140585 1.4120973 1
-9.3431511 9.7295055 1.2286782 1
0.23389795 5.5196166 1.5078099 1
-19.458397 -0.79183221 1.3131201 1
-8.2747707 3.5821507 1.4139123 1
-9.3517456 9.6707859 1.2279073 1
-3.8006828 10.17173 1.2984049 1
0.19920264 5.1909475 1.5122775 1
-19.463598 -0.86373973 1.3265804 1
-8.2765923 3.5485632 1.4189265 1
-9.4245567 9.6749096 1.2264473 1
0.20118415 5.6060138 1.4958436 1
-19.45414 -0.92779315 1.3436941 1
-8.3117046 3.5254338 1.4229974 1
-9.436368 9.6195488 1.2255098 1
-3.9583211 10.361621 1.2816983 1
0.18277523 5.6116905 1.4914262 1
-19.293871 -0.99345398 1.3630998 1
-8.3462095 3.5035102 1.425547 1
-9.518158 9.6284628 1.2283132 1
-3.9718094 10.291378 1.2786834 1
0.16529246 5.6422634 1.486155 1
-19.243534 -1.0603085 1.380641 1
-8.3571272 3.4730854 1.4303063 1
-9.5586081 9.6004744 1.226045 1
-4.0054092 10.266667 1.2720788 1
0.14688921 5.6527953 1.481527 1
-19.173033 -1.125085 1.3983727 1
-8.3868113 3.4491956 1.4345577 1
-9.5481968 9.5244055 1.2306554 1
-4.0715165 10.325812 1.2657944 1
0.12841094 5.6632562 1.4768825 1
-19.127495 -1.1882898 1.41567 1
-8.4306107 3.4300082 1.4384571 1
-9.6832438 9.5853014 1.2310474 1
-4.1342854 10.375519 1.2635535 1
0.11054795 5.6986203 1.471313 1
-19.031601 -1.2498305 1.4301566 1
-8.4412527 3.3992703 1.4432433 1
-9.6760464 9.5123739 1.2308784 1
-4.2168398 10.470725 1.253822 1
0.091589987 5.6989493 1.4669863 1
-18.959814 -1.3197384 1.4508731 1
-8.4659939 3.3732688 1.4476724 1
-9.7539949 9.5092573 1.2318026 1
-4.3134241 10.58687 1.2411497 1
0.071526758 5.7342105 1.4613464 1
-18.977921 -1.3916382 1.4672351 1
-8.5196123 3.3550925 1.4514269 1
-9.783124 9.4702063 1.2323147 1
-4.3855433 10.648234 1.2344433 1
0.051934019 5.7593813 1.4560281 1
-18.896957 -1.4466062 1.481246 1
-8.5252228 3.3224678 1.4563557 1
-9.8275166 9.4513502 1.2342978 1
-4.4643917 10.728288 1.2268883 1
0.034840994 5.7794776 1.4517556 1
-18.815176 -1.50762 1.5017465 1
-8.5439806 3.2974117 1.4593722 1
-9.7934027 9.3551731 1.2398248 1
-4.6025524 10.951285 1.2131586 1
0.015769858 5.7994952 1.4465559 1
-18.753027 -1.5702958 1.5186541 1
-8.5979624 3.2769923 1.4647911 1
-9.8473692 9.3326693 1.2417077 1
-4.6949291 11.0468 1.2026614 1
-0.0052652261 5.8244443 1.4411341 1
-18.76092 -1.6340975 1.5317117 1
-8.5975218 3.2455986 1.468261 1
-9.9264565 9.3414288 1.2353581 1
-4.7499294 11.071349 1.1972136 1
-0.022793218 5.8443394 1.4367721 1
-18.713217 -1.6979747 1.5484054 1
-8.6313343 3.2216847 1.472577 1
-9.9699354 9.3151064 1.2375385 1
-4.8234715 11.131223 1.1901435 1
-0.042320393 5.8641315 1.4314718 1
-18.679382 -1.7698811 1.5682313 1
-8.6942434 3.2048898 1.4779023 1
-10.080998 9.3478804 1.2368823 1
-4.81814 11.007256 1.1911781 1
-0.063041292 5.9038215 1.4252765 1
-18.670879 -1.8382173 1.5879078 1
-8.6801243 3.165911 1.4832625 1
-10.034176 9.2422934 1.2474833 1
-4.7517438 10.762707 1.197773 1
-0.082927056 5.9234948 1.4208328 1
-18.494389 -1.8779491 1.6047976 1
-8.7280846 3.145731 1.4873663 1
-10.063782 9.200634 1.2503104 1
-3.3653979 7.6938787 1.3331846 1
-0.10283451 5.9330587 1.4158696 1
-6.3945742 -0.31766734 1.6459124 1
-8.780858 3.1266794 1.4946048 1
-10.125862 9.1899004 1.2517401 1
-3.3600464 7.6081347 1.3367668 1
-0.12306502 5.9575262 1.4102021 1
-8.7807112 3.0918159 1.4965019 1
-10.157414 9.1527443 1.2474413 1
-4.8226461 10.618676 1.1913031 1
-0.14338194 5.9768744 1.4037772 1
-8.8101835 3.062248 1.5010651 1
-10.18818 9.1089401 1.2526067 1
-4.8227835 10.524336 1.1913615 1
-0.16610622 6.011117 1.3975673 1
-8.8762865 3.0495522 1.5049549 1
-10.231864 9.088069 1.2523024 1
-4.8331804 10.452612 1.1904107 1
-0.18578151 6.0305014 1.3948765 1
-18.150356 -2.1714818 1.6887577 1
-9.275485 3.1263306 1.5050007 1
-10.264659 9.0489159 1.2549796 1
-4.9106731 10.514734 1.183092 1
-0.20689495 6.0596251 1.3888069 1
-18.204515 -2.2477207 1.7048907 1
-9.3187132 3.1017895 1.5096126 1
-10.303535 9.0177908 1.257338 1
-4.9768486 10.565637 1.1782619 1
-0.22804743 6.0836711 1.3829359 1
-18.164494 -2.3096478 1.7208148 1
-9.3719721 3.0779595 1.5141172 1
-10.369378 9.0086651 1.2586513 1
-4.953423 10.426553 1.1805689 1
-0.24937181 6.1076789 1.3779958 1
-6.814743 -0.55207133 1.6881237 1
-9.3764973 3.0424831 1.5227615 1
-10.419827 8.9866133 1.2629129 1
-4.9302049 10.28161 1.1832129 1
-0.27045551 6.121572 1.372558 1
-6.7962589 -0.57212406 1.6940342 1
-9.4050093 3.0133634 1.5276819 1
-10.446874 8.9454155 1.265732 1
-4.9946628 10.316033 1.1771462 1
-0.29284611 6.1403742 1.3678229 1
-6.7670512 -0.59511334 1.7010483 1
-9.4624424 2.9916058 1.5305319 1
-10.502526 8.92418 1.2675431 1
-4.9529939 10.146472 1.1811949 1
-0.31541321 6.1790266 1.3610164 1
-6.8322015 -0.62928963 1.7074909 1
-9.4568977 2.953342 1.5359484 1
-10.595833 8.9355745 1.2679003 1
-4.9675112 10.088371 1.1816595 1
-0.33718494 6.1976924 1.3562027 1
-6.8372517 -0.65830499 1.7147847 1
-9.4948463 2.9261689 1.542506 1
-10.595189 8.8721056 1.2717409 1
-5.0087152 10.078061 1.1778277 1
-0.35967824 6.2261839 1.3498284 1
-6.813518 -0.67733085 1.7194221 1
-9.5561342 2.9080875 1.5470998 1
-10.680799 8.8765383 1.2724215 1
-4.9728436 9.9331532 1.1809136 1
-0.38276291 6.2446084 1.3449615 1
-6.8089476 -0.70217085 1.7266239 1
-9.5559044 2.8674977 1.5524811 1
-10.754785 8.8713093 1.2759243 1
-4.9846945 9.8645744 1.1800785 1
-0.40531951 6.2679815 1.3397813 1
-6.9175515 -0.74692309 1.7338518 1
-9.6025238 2.8453171 1.559029 1
-10.743201 8.7965775 1.2801831 1
-5.0235343 9.8551006 1.1781238 1
-0.42874393 6.3011642 1.3329984 1
-7.0207729 -0.79273301 1.7412206 1
-9.6547413 2.8206384 1.563871 1
-10.836949 8.8059235 1.2806499 1
-5.0140777 9.752243 1.1791413 1
-0.45241097 6.3343034 1.3271713 1
-6.4268093 -0.70386398 1.7422311 1
-9.6679792 2.7865403 1.5725772 1
-10.891103 8.7844677 1.2825274 1
-5.0262599 9.6943941 1.1797181 1
-0.47619745 6.3523912 1.3231903 1
-6.334312 -0.70759416 1.7455525 1
-9.7054195 2.7579372 1.5758984 1
-10.96516 8.7777138 1.2813413 1
-5.0332441 9.6277485 1.1789572 1
-0.50032163 6.3852062 1.3152397 1
-6.251193 -0.71486402 1.7511027 1
-9.7720757 2.7357144 1.5842277 1
-11.043445 8.7736769 1.2872182 1
-5.0398598 9.5613365 1.1818326 1
-0.5238449 6.4081492 1.3108976 1
-6.1676621 -0.72368234 1.7564832 1
-9.7605801 2.6957085 1.5914512 1
-11.033458 8.7035408 1.2912903 1
-5.0573545 9.5114746 1.1820016 1
-0.54754674 6.430933 1.305499 1
-6.2025018 -0.75220197 1.7625912 1
-9.812789 2.6679358 1.596509 1
-11.060786 8.658391 1.2965488 1
-5.072957 9.4624119 1.1803756 1
-0.57381636 6.4684334 1.2991724 1
-6.2025065 -0.77583587 1.769262 1
-9.8988075 2.648849 1.6066916 1
-11.126919 8.6446133 1.3028805 1
-5.0957112 9.4264536 1.1798519 1
-0.59981281 6.5108795 1.2924783 1
-6.2024336 -0.7994895 1.7748402 1
-9.8771296 2.6065233 1.610473 1
-11.168693 8.612709 1.302819 1
-5.1048517 9.3635025 1.1789806 1
-0.62220603 6.5134125 1.287143 1
-6.2119865 -0.82530713 1.7828276 1
-9.9336443 2.5805597 1.6191682 1
-10.954881 8.3968592 1.3179485 1
-5.1321235 9.3361454 1.1780026 1
-0.64817721 6.5508051 1.2827706 1
-6.2068357 -0.84793252 1.7883297 1
-10.048894 2.5661013 1.6259834 1
-11.012086 8.3771143 1.31738 1
-5.1365466 9.269824 1.1773944 1
-0.67391431 6.5728178 1.275084 1
-6.2064462 -0.87164706 1.7950429 1
-10.012131 2.520632 1.6315684 1
-11.057174 8.348527 1.3242654 1
-5.1583371 9.2337837 1.1769063 1
-0.69985628 6.6049528 1.2698908 1
-6.1816392 -0.88972479 1.8001007 1
-10.078232 2.4955349 1.6386634 1
-11.087155 8.3062401 1.3293127 1
-5.1737843 9.1839275 1.1771564 1
-0.72548056 6.631948 1.2639138 1
-6.1716003 -0.91000956 1.806573 1
-10.114811 2.4643528 1.6458807 1
-11.13199 8.2771616 1.3315018 1
-5.1643362 9.0965128 1.181302 1
-0.75296259 6.6636615 1.2575828 1
-6.1563973 -0.93014979 1.8118116 1
-10.048081 2.4136059 1.6514205 1
-10.276499 7.6251621 1.3621501 1
-5.1620398 9.0220261 1.1829948 1
-0.77842051 6.6854715 1.2518516 1
-6.141645 -0.94806409 1.8170342 1
-10.084393 2.3823154 1.6586406 1
-10.380743 7.6413608 1.3623676 1
-5.2075486 9.0235233 1.1803914 1
-0.80652606 6.7269735 1.2447619 1
-6.1311069 -0.96921271 1.8245595 1
-10.183939 2.3658206 1.6677361 1
-10.489479 7.6598244 1.3691286 1
-5.2359333 9.0001011 1.1774791 1
-0.83347714 6.7484879 1.2400547 1
-6.1204872 -0.99030203 1.8320713 1
-10.116684 2.3156166 1.6785012 1
-10.333323 7.4984121 1.3787923 1
-5.2511501 8.9556017 1.1809731 1
-0.85951805 6.7699523 1.234216 1
-6.1098785 -1.0113516 1.8362858 1
-10.187172 2.2896943 1.6823269 1
-10.135689 7.3085327 1.3830447 1
-5.2965755 8.9564514 1.1748978 1
-0.88640141 6.796247 1.2280039 1
-6.0942616 -1.0310706 1.8436266 1
-10.301962 2.2707732 1.6917694 1
-10.123094 7.2467098 1.3928 1
-5.2981243 8.890727 1.1796105 1
-0.91805404 6.8470445 1.2211556 1
